ply
format ascii 1.0
comment Created by CloudCompare v2.12 alpha
comment Created 6/11/2021 2:24 PM
obj_info Generated by CloudCompare!
element vertex 716
property double x
property double y
property double z
property float nx
property float ny
property float nz
end_header
159477.502991 383901.247986 21.612000 -0.023017 -0.001001 0.999735 
159477.515015 383900.610992 21.622999 -0.012857 0.000989 0.999917 
159477.533997 383897.778015 21.584999 -0.000981 -0.004907 0.999987 
159477.556030 383897.795990 21.598000 -0.000981 -0.004907 0.999987 
159477.564026 383899.380005 21.658001 -0.008884 -0.002961 0.999956 
159477.567017 383896.144012 21.575001 0.010880 0.002967 0.999936 
159477.572998 383899.095001 21.580000 -0.004907 -0.000981 0.999987 
159477.617981 383901.950989 21.625999 -0.037461 0.001012 0.999298 
159477.633972 383895.946991 21.583000 0.010923 0.004965 0.999928 
159477.648010 383902.464996 21.618000 -0.068470 -0.013694 0.997559 
159477.656982 383902.438995 21.615000 -0.068470 -0.013694 0.997559 
159477.663025 383899.625000 21.826000 -0.008867 -0.000985 0.999960 
159477.682983 383896.742004 21.601999 0.000987 -0.010858 0.999941 
159477.697998 383896.584015 21.584000 0.004936 -0.006910 0.999964 
159477.702026 383895.510986 21.583000 0.010901 0.004955 0.999928 
159477.705994 383901.234985 21.614000 -0.035726 -0.009187 0.999319 
159477.747009 383898.348999 21.579000 -0.004936 -0.004936 0.999976 
159477.755005 383895.054993 21.615999 0.012934 0.004975 0.999904 
159477.755981 383898.473999 21.576000 -0.006937 -0.006937 0.999952 
159477.786987 383900.897003 21.628000 -0.020933 -0.000997 0.999780 
159477.835999 383897.450989 21.584999 0.000985 -0.006896 0.999976 
159477.843994 383898.920013 21.976000 -0.004926 -0.002956 0.999984 
159477.848999 383901.675995 21.596001 -0.037613 -0.003050 0.999288 
159477.872986 383898.992004 21.785999 -0.012934 -0.004975 0.999904 
159477.877014 383897.539001 21.611000 0.000983 -0.006883 0.999976 
159477.895996 383900.345001 21.615999 -0.020974 -0.002996 0.999776 
159477.898987 383895.617004 21.610001 0.008884 0.002961 0.999956 
159477.901978 383899.605011 21.974001 -0.018977 -0.004994 0.999807 
159477.906982 383901.591003 21.627001 -0.039643 -0.003049 0.999209 
159477.916992 383895.899994 21.594999 0.006910 0.004936 0.999964 
159477.919006 383902.114014 21.615000 -0.054838 -0.007243 0.998469 
159477.958984 383896.260986 21.600000 0.004916 -0.002950 0.999984 
159477.966980 383899.419006 22.016001 -0.016947 -0.004984 0.999844 
159478.017029 383902.207001 21.612000 -0.073276 -0.015929 0.997185 
159478.039978 383902.753998 21.756001 -0.077828 -0.015992 0.996839 
159478.046021 383898.113007 21.665001 -0.008954 -0.010944 0.999900 
159478.049988 383900.996002 21.618999 -0.037918 -0.013323 0.999192 
159478.054016 383896.483002 21.587000 0.000983 -0.006883 0.999976 
159478.057007 383900.563995 21.608000 -0.020933 -0.000997 0.999780 
159478.065002 383895.257996 21.591000 0.004916 0.002950 0.999984 
159478.080017 383898.117004 21.610001 -0.008954 -0.010944 0.999900 
159478.117004 383897.102997 21.601000 0.000985 -0.006896 0.999976 
159478.117981 383898.696014 21.618000 -0.014983 -0.008990 0.999847 
159478.169006 383895.283997 21.601000 0.004916 0.002950 0.999984 
159478.179016 383903.053986 21.598000 -0.084540 -0.016052 0.996291 
159478.182007 383901.445007 21.613001 -0.039885 -0.007159 0.999179 
159478.182983 383901.250000 21.632000 -0.039966 -0.009223 0.999159 
159478.192017 383899.243988 22.033001 -0.019053 -0.007020 0.999794 
159478.211975 383901.750000 21.618000 -0.057373 -0.011475 0.998287 
159478.221985 383900.117004 21.601000 -0.020974 -0.002996 0.999776 
159478.242981 383897.283997 21.580999 -0.004955 -0.008919 0.999948 
159478.247986 383895.670013 21.594000 0.000981 0.002944 0.999995 
159478.260986 383895.888000 21.593000 0.000979 0.000979 0.999999 
159478.270020 383898.609009 21.604000 -0.019129 -0.011075 0.999756 
159478.296997 383897.803986 21.620001 -0.008955 -0.008955 0.999920 
159478.299988 383902.436005 21.638000 -0.113305 -0.020901 0.993340 
159478.322998 383900.231995 21.615000 -0.018978 -0.002996 0.999815 
159478.348999 383901.975006 21.628000 -0.086853 -0.013939 0.996124 
159478.385986 383899.115997 21.695000 -0.019053 -0.009025 0.999778 
159478.406982 383896.744995 21.559000 -0.000989 -0.010880 0.999940 
159478.411987 383897.884003 21.590000 -0.015012 -0.011009 0.999827 
159478.413025 383900.742004 21.622000 -0.035871 -0.013324 0.999268 
159478.416992 383898.325989 21.625999 -0.019129 -0.013088 0.999731 
159478.418030 383896.226990 21.577000 -0.002950 -0.002950 0.999991 
159478.437988 383898.953003 21.629000 -0.019091 -0.009043 0.999777 
159478.461975 383900.906006 21.622999 -0.040128 -0.015434 0.999075 
159478.502014 383901.391998 21.629000 -0.042012 -0.009222 0.999075 
159478.523010 383895.563995 21.615000 0.002944 0.002944 0.999991 
159478.536011 383902.803986 21.624001 -0.280384 -0.062167 0.957873 
159478.551025 383901.187988 21.618000 -0.042098 -0.011294 0.999050 
159478.556030 383902.118988 21.629000 -0.116481 -0.025515 0.992865 
159478.570007 383899.873993 21.590000 -0.018977 -0.004994 0.999807 
159478.578003 383897.457001 21.621000 -0.015042 -0.013037 0.999802 
159478.586975 383897.042999 21.572001 -0.013037 -0.013037 0.999830 
159478.596008 383895.427002 21.604000 -0.000978 0.000978 0.999999 
159478.596985 383899.891998 21.620001 -0.018977 -0.004994 0.999807 
159478.633972 383898.354004 21.603001 -0.019129 -0.013088 0.999731 
159478.674988 383898.007996 21.622000 -0.019167 -0.015132 0.999702 
159478.684021 383896.399994 21.625999 -0.006937 -0.006937 0.999952 
159478.698975 383898.631012 21.622000 -0.019129 -0.011075 0.999756 
159478.700012 383901.731995 21.625000 -0.096581 -0.020618 0.995112 
159478.724976 383898.877014 21.611000 -0.019091 -0.009043 0.999777 
159478.741028 383900.558990 21.625999 -0.037995 -0.015403 0.999159 
159478.763000 383897.640015 21.613001 -0.019129 -0.013088 0.999731 
159478.768005 383895.984985 21.587999 -0.010901 -0.002973 0.999936 
159478.771973 383901.056000 21.625000 -0.042270 -0.013403 0.999016 
159478.781982 383900.484985 21.612000 -0.035942 -0.017458 0.999201 
159478.853027 383897.114990 21.607000 -0.017115 -0.015102 0.999739 
159478.856995 383901.747986 21.615000 -0.139440 -0.032876 0.989685 
159478.880005 383899.540985 21.638000 -0.016980 -0.006992 0.999831 
159478.882019 383900.957001 21.611000 -0.042356 -0.015496 0.998982 
159478.903015 383899.641998 21.613001 -0.016980 -0.004994 0.999843 
159478.903015 383902.546997 21.627001 -0.431873 -0.123190 0.893482 
159478.950012 383896.790985 21.598000 -0.017116 -0.013089 0.999768 
159478.953003 383897.662994 21.620001 -0.017116 -0.013089 0.999768 
159478.971008 383896.045990 21.596001 -0.010901 -0.002973 0.999936 
159478.979004 383898.114014 21.618999 -0.019167 -0.013115 0.999730 
159478.992004 383898.268005 21.631001 -0.019167 -0.013115 0.999730 
159479.000977 383900.237000 21.632000 -0.016947 -0.002991 0.999852 
159479.030029 383901.501007 21.618000 -0.149037 -0.045058 0.987804 
159479.101013 383895.752991 21.573999 -0.012934 -0.004975 0.999904 
159479.104004 383903.196014 21.681999 -0.659501 -0.156158 0.735305 
159479.104980 383898.612000 21.618000 -0.019129 -0.011075 0.999756 
159479.107971 383900.260010 21.650000 -0.016913 -0.002985 0.999852 
159479.117004 383897.394012 21.604000 -0.017081 -0.013062 0.999769 
159479.129028 383903.247986 23.933001 0.696126 0.162988 -0.699173 
159479.158020 383896.738007 21.617001 -0.017116 -0.013089 0.999768 
159479.179016 383899.170990 21.642000 -0.017014 -0.007006 0.999831 
159479.203003 383900.747986 22.035000 -0.212473 -0.101836 0.971846 
159479.210022 383897.345001 21.618000 -0.015102 -0.015102 0.999772 
159479.231018 383895.722992 21.601000 -0.014953 -0.006978 0.999864 
159479.231018 383901.549011 27.653000 0.296362 0.101422 0.949675 
159479.232971 383902.317993 21.641001 -0.557118 -0.179667 0.810765 
159479.258972 383897.937988 21.643999 -0.019206 -0.015162 0.999701 
159479.260010 383902.369995 23.896000 -0.631320 -0.286092 0.720824 
159479.273010 383899.385010 21.618000 -0.016980 -0.006992 0.999831 
159479.278015 383899.891998 21.648001 -0.014924 -0.004975 0.999876 
159479.306030 383903.139008 24.669001 -0.044963 0.028232 0.998590 
159479.307007 383897.886993 21.618999 -0.019206 -0.015162 0.999701 
159479.318970 383896.535004 21.613001 -0.017081 -0.013062 0.999769 
159479.390991 383903.085999 24.705999 0.032677 0.049543 0.998237 
159479.398987 383901.243988 21.628000 -0.141264 -0.047088 0.988851 
159479.411987 383900.776001 27.639000 0.298096 0.098490 0.949441 
159479.421997 383896.411011 21.635000 -0.017048 -0.009025 0.999814 
159479.445984 383898.842010 21.625000 -0.015043 -0.011031 0.999826 
159479.461975 383900.013000 21.635000 -0.012883 -0.002973 0.999913 
159479.465027 383898.362000 21.622000 -0.017116 -0.013089 0.999768 
159479.466980 383897.148987 21.618000 -0.015102 -0.015102 0.999772 
159479.512024 383896.970001 21.620001 -0.015072 -0.015072 0.999773 
159479.526001 383902.196991 24.344999 -0.492747 -0.476157 0.728337 
159479.531982 383897.600006 21.642000 -0.015072 -0.015072 0.999773 
159479.557007 383899.548004 21.624001 -0.014953 -0.004984 0.999876 
159479.575989 383903.252991 24.524000 -0.032029 0.027896 0.999098 
159479.580017 383901.308014 27.698999 0.300180 0.104468 0.948145 
159479.585022 383902.072998 21.646000 -0.611196 -0.219284 0.760496 
159479.585999 383903.411011 24.275000 -0.526609 -0.158725 0.835158 
159479.596008 383902.778015 24.718000 0.140309 0.542035 0.828560 
159479.609009 383899.151001 21.632000 -0.012960 -0.008972 0.999876 
159479.609009 383900.453003 21.701000 -0.092022 -0.049892 0.994506 
159479.619995 383900.087006 27.591999 0.298841 0.098736 0.949181 
159479.637024 383901.825989 27.756001 0.299510 0.101596 0.948669 
159479.653015 383897.645996 21.631001 -0.015072 -0.015072 0.999773 
159479.655029 383896.299988 21.601000 -0.021058 -0.007019 0.999754 
159479.674011 383900.506989 27.745001 0.298841 0.098736 0.949181 
159479.713989 383896.049011 21.625000 -0.021058 -0.007019 0.999754 
159479.734009 383901.010986 21.636000 -0.230017 -0.089241 0.969086 
159479.737976 383898.479004 21.631001 -0.015072 -0.015072 0.999773 
159479.755005 383900.537994 27.688999 0.301236 0.098658 0.948432 
159479.789001 383902.798004 24.288000 -0.408065 -0.210662 0.888315 
159479.794006 383896.621002 21.639999 -0.019015 -0.007006 0.999795 
159479.796997 383899.778992 21.636999 -0.008902 -0.002967 0.999956 
159479.799988 383897.269012 21.643000 -0.015042 -0.013037 0.999802 
159479.810974 383898.121002 21.620001 -0.013089 -0.017116 0.999768 
159479.817017 383902.964996 24.267000 -0.393361 -0.225409 0.891324 
159479.823975 383896.901001 21.615999 -0.015042 -0.013037 0.999802 
159479.848022 383901.983002 24.690001 -0.115778 0.813378 0.570098 
159479.898010 383901.509003 27.618000 0.270754 0.157603 0.949660 
159479.931030 383901.059998 27.620001 0.303343 0.104647 0.947118 
159479.942993 383900.175995 27.683001 0.301989 0.098905 0.948167 
159479.948975 383903.157013 24.236000 -0.352364 -0.221859 0.909186 
159479.963013 383900.204987 21.635000 -0.000979 0.002938 0.999995 
159479.979004 383898.891998 21.629000 -0.010988 -0.010988 0.999879 
159479.982971 383899.835999 27.686001 0.301236 0.098658 0.948432 
159479.995972 383896.062988 21.618999 -0.021058 -0.007019 0.999754 
159479.997986 383898.157990 21.629999 -0.011075 -0.019129 0.999756 
159480.013000 383897.393005 21.624001 -0.013037 -0.013037 0.999830 
159480.068970 383896.279999 21.621000 -0.021100 -0.007033 0.999753 
159480.090027 383896.910004 21.622999 -0.019053 -0.007020 0.999794 
159480.091003 383902.627014 24.240000 -0.229716 -0.055279 0.971687 
159480.112000 383900.289001 27.658001 0.301989 0.098905 0.948167 
159480.124023 383898.983002 27.705000 0.298172 0.095888 0.949684 
159480.133972 383897.895996 21.634001 -0.011009 -0.015012 0.999827 
159480.137024 383899.138000 27.709000 0.300562 0.095812 0.948937 
159480.143982 383902.549011 24.252001 -0.222088 -0.062577 0.973016 
159480.148987 383901.197998 27.573999 0.305829 0.101943 0.946613 
159480.150024 383901.856995 27.431999 0.204688 0.259638 0.943764 
159480.166016 383899.520996 21.653000 -0.000983 -0.004916 0.999987 
159480.195007 383896.643005 21.676001 -0.023109 -0.007033 0.999708 
159480.223022 383899.830994 27.691999 0.301989 0.098905 0.948167 
159480.239014 383901.877014 27.448999 0.210387 0.251639 0.944677 
159480.241028 383901.696991 24.243999 -0.295790 -0.583586 0.756264 
159480.255981 383903.342987 24.254000 -0.104392 -0.106738 0.988792 
159480.281982 383900.812988 27.523001 0.308226 0.101860 0.945844 
159480.286011 383899.980011 21.671000 0.010880 0.002967 0.999936 
159480.304016 383897.967010 27.579000 0.295622 0.101169 0.949933 
159480.317993 383902.899994 24.242001 -0.152969 -0.074706 0.985403 
159480.336975 383898.644012 21.643999 -0.004975 -0.012934 0.999904 
159480.338989 383899.587006 27.646999 0.305145 0.099073 0.947138 
159480.354980 383895.925995 21.631001 -0.021100 -0.007033 0.999753 
159480.357971 383897.153992 21.632999 -0.019053 -0.007020 0.999794 
159480.361023 383898.322998 27.728001 0.298762 0.101342 0.948932 
159480.374023 383896.557007 21.621000 -0.023155 -0.007047 0.999707 
159480.398987 383898.815002 27.695000 0.301236 0.098658 0.948432 
159480.416992 383903.458008 24.249001 -0.017252 -0.023340 0.999579 
159480.437012 383900.842987 27.538000 0.308308 0.099241 0.946096 
159480.468994 383902.321991 24.219999 -0.383564 0.227787 0.894982 
159480.471985 383898.739990 27.669001 0.304383 0.098826 0.947409 
159480.473022 383900.032990 27.549999 0.305145 0.099073 0.947138 
159480.489014 383897.648010 21.634001 -0.013011 -0.011009 0.999855 
159480.492004 383901.565002 27.403999 0.281043 0.149262 0.948017 
159480.495972 383899.290985 21.642000 0.010923 -0.004965 0.999928 
159480.495972 383899.490997 27.652000 0.305145 0.099073 0.947138 
159480.504028 383901.997986 27.337999 0.230481 0.241522 0.942627 
159480.510986 383901.602997 27.355000 0.281043 0.149262 0.948017 
159480.526001 383903.006989 24.257999 -0.162477 0.106282 0.980972 
159480.526978 383896.411011 21.629999 -0.023155 -0.007047 0.999707 
159480.543030 383897.213013 27.556999 0.301909 0.101515 0.947916 
159480.637024 383900.562012 27.433001 0.308226 0.101860 0.945844 
159480.646973 383902.670990 24.237000 -0.165634 0.332660 0.928387 
159480.650024 383896.216003 21.655001 -0.023202 -0.009079 0.999690 
159480.653015 383897.725006 27.673000 0.301909 0.101515 0.947916 
159480.653992 383897.960999 27.683001 0.301989 0.098905 0.948167 
159480.669006 383898.480011 27.671000 0.305064 0.101688 0.946887 
159480.677979 383898.407013 21.670000 -0.006992 -0.014983 0.999863 
159480.700989 383899.333008 27.546000 0.308226 0.101860 0.945844 
159480.706970 383900.513000 27.445999 0.308226 0.101860 0.945844 
159480.710022 383896.907990 21.649000 -0.027234 -0.007061 0.999604 
159480.755005 383901.242004 27.346001 0.290722 0.135313 0.947191 
159480.762024 383899.165985 27.565001 0.305145 0.099073 0.947138 
159480.763977 383902.204010 27.062000 0.006932 0.750063 0.661331 
159480.773010 383903.209991 24.252001 -0.051811 0.206037 0.977172 
159480.776001 383901.662994 27.295000 0.286211 0.143777 0.947318 
159480.794983 383896.941010 27.736000 0.301989 0.098905 0.948167 
159480.835999 383898.483002 27.620001 0.305829 0.101943 0.946613 
159480.844971 383897.401001 21.639000 -0.021100 -0.007033 0.999753 
159480.846008 383902.059998 24.221001 -0.146350 0.734766 0.662345 
159480.851013 383899.766998 27.441000 0.308308 0.099241 0.946096 
159480.866028 383896.992004 27.695999 0.302666 0.101770 0.947648 
159480.872986 383896.170990 21.649000 -0.025218 -0.009078 0.999641 
159480.872986 383901.347992 27.290001 0.291354 0.138293 0.946566 
159480.914978 383897.639008 27.680000 0.305064 0.101688 0.946887 
159480.942017 383898.144989 27.635000 0.305829 0.101943 0.946613 
159480.974976 383900.183014 27.399000 0.311395 0.102032 0.944787 
159481.000977 383902.424011 24.218000 -0.175695 0.658474 0.731808 
159481.002991 383900.303009 27.337999 0.311395 0.102032 0.944787 
159481.004028 383896.273010 27.725000 0.298841 0.098736 0.949181 
159481.015015 383898.851990 27.549999 0.308999 0.102116 0.945564 
159481.026001 383901.354004 27.246000 0.291462 0.135657 0.946915 
159481.028015 383900.903992 27.297001 0.314572 0.102203 0.943716 
159481.036011 383897.458008 27.638000 0.305829 0.101943 0.946613 
159481.046997 383899.087006 27.448999 0.311479 0.099408 0.945039 
159481.062012 383896.609009 27.688999 0.301989 0.098905 0.948167 
159481.081970 383903.621002 24.247999 -0.038629 0.098227 0.994414 
159481.098999 383896.636993 21.622999 -0.029368 -0.009114 0.999527 
159481.119019 383901.958008 27.125000 0.156261 0.546168 0.822972 
159481.145020 383902.951996 24.246000 -0.119164 0.480963 0.868605 
159481.163025 383897.183014 21.796000 -0.035654 -0.007131 0.999339 
159481.179993 383901.826996 24.221001 -0.123678 0.743559 0.657133 
159481.190979 383902.075989 27.105000 0.104388 0.630738 0.768942 
159481.192017 383898.233002 27.517000 0.308999 0.102116 0.945564 
159481.195984 383896.760010 27.670000 0.305829 0.101943 0.946613 
159481.200012 383897.283997 27.662001 0.308999 0.102116 0.945564 
159481.215027 383901.105988 27.173000 0.296578 0.130172 0.946096 
159481.231018 383897.789001 27.570000 0.308915 0.104739 0.945305 
159481.236023 383899.494995 27.341999 0.311395 0.102032 0.944787 
159481.244019 383899.851013 27.325001 0.311395 0.102032 0.944787 
159481.276978 383898.531006 27.480000 0.308999 0.102116 0.945564 
159481.288025 383903.826996 24.247000 -0.012883 -0.002973 0.999913 
159481.296021 383902.303009 26.964001 -0.009697 0.757752 0.652470 
159481.297974 383901.019989 27.194000 0.315362 0.102459 0.943424 
159481.317017 383903.807007 24.250999 -0.033274 0.067622 0.997156 
159481.317993 383900.546997 27.247000 0.314572 0.102203 0.943716 
159481.325989 383902.197998 24.230000 -0.126814 0.684795 0.717617 
159481.330017 383896.278015 27.695999 0.305064 0.101688 0.946887 
159481.351990 383903.286011 24.240999 -0.122249 0.361252 0.924420 
159481.370972 383900.045013 27.235001 0.311395 0.102032 0.944787 
159481.372986 383897.221985 27.559999 0.308915 0.104739 0.945305 
159481.400024 383896.433990 21.813000 -0.031519 -0.009151 0.999461 
159481.406982 383898.835999 27.368999 0.312177 0.102288 0.944501 
159481.450989 383896.976990 27.586000 0.308999 0.102116 0.945564 
159481.455994 383901.746002 27.072001 0.240076 0.407086 0.881274 
159481.478027 383902.718994 24.259001 -0.136217 0.633186 0.761919 
159481.481018 383897.479004 27.534000 0.312177 0.102288 0.944501 
159481.494995 383901.691986 27.021999 0.247912 0.384487 0.889218 
159481.513977 383899.516998 27.285999 0.314572 0.102203 0.943716 
159481.554993 383898.187012 27.427000 0.312177 0.102288 0.944501 
159481.564026 383897.970001 27.412001 0.312177 0.102288 0.944501 
159481.565002 383900.692993 27.103001 0.315362 0.102459 0.943424 
159481.573975 383900.233002 27.181999 0.314572 0.102203 0.943716 
159481.573975 383903.471985 24.267000 -0.132093 0.371251 0.919089 
159481.577026 383899.255005 27.250999 0.314572 0.102203 0.943716 
159481.580017 383900.850006 27.076000 0.319600 0.120019 0.939921 
159481.588989 383896.484009 27.559999 0.308999 0.102116 0.945564 
159481.640991 383902.061005 26.906000 0.104108 0.626117 0.772748 
159481.658997 383904.089996 24.287001 0.007822 -0.148609 0.988865 
159481.669983 383903.559998 24.249001 -0.128416 0.317662 0.939468 
159481.687012 383901.947998 24.298000 -0.140027 0.703145 0.697122 
159481.715027 383901.429993 27.013000 0.300049 0.251237 0.920245 
159481.718018 383896.647003 27.547001 0.308999 0.102116 0.945564 
159481.726990 383896.971008 27.448999 0.311395 0.102032 0.944787 
159481.742981 383899.782013 27.143999 0.314572 0.102203 0.943716 
159481.770996 383899.200989 27.215000 0.314572 0.102203 0.943716 
159481.771973 383897.122009 27.462000 0.312177 0.102288 0.944501 
159481.775024 383898.575012 27.245001 0.315362 0.102459 0.943424 
159481.820007 383902.479004 24.254999 -0.156080 0.653112 0.741002 
159481.836975 383897.838989 27.365999 0.314572 0.102203 0.943716 
159481.838989 383903.144012 24.236000 -0.167506 0.505481 0.846422 
159481.846985 383904.138000 24.257999 -0.020378 -0.082584 0.996376 
159481.854004 383899.889008 27.111000 0.315362 0.102459 0.943424 
159481.856018 383901.437988 26.934999 0.292639 0.266690 0.918280 
159481.857971 383900.332001 27.066999 0.315362 0.102459 0.943424 
159481.932983 383899.003998 27.167000 0.315362 0.102459 0.943424 
159481.947021 383900.591003 26.969999 0.318465 0.105267 0.942071 
159481.956970 383903.723999 24.250999 -0.122366 0.310622 0.942624 
159481.958008 383897.691986 27.305000 0.315275 0.105092 0.943164 
159481.971008 383902.420990 26.809999 0.076883 0.700649 0.709352 
159481.976990 383901.108002 26.945999 0.312114 0.176171 0.933568 
159482.025024 383896.811005 27.430000 0.312177 0.102288 0.944501 
159482.026001 383901.790009 26.818001 0.233836 0.445043 0.864440 
159482.033020 383898.878998 27.164000 0.315362 0.102459 0.943424 
159482.051025 383903.295990 24.250000 -0.176160 0.484070 0.857114 
159482.081970 383896.721008 27.364000 0.312177 0.102288 0.944501 
159482.096985 383897.519012 27.329000 0.315275 0.105092 0.943164 
159482.111023 383899.570007 27.054001 0.317755 0.102373 0.942630 
159482.111023 383900.019989 27.007999 0.317755 0.102373 0.942630 
159482.127014 383899.510986 27.038000 0.317755 0.102373 0.942630 
159482.135010 383898.321014 27.173000 0.316068 0.105356 0.942869 
159482.146973 383902.252014 24.254000 -0.172254 0.629565 0.757612 
159482.164978 383902.316010 26.702000 0.107743 0.677452 0.727633 
159482.168030 383903.914001 24.263000 -0.123614 0.210271 0.969797 
159482.169983 383902.640991 26.725000 0.095301 0.690569 0.716960 
159482.203979 383901.192993 26.830999 0.307443 0.197943 0.930751 
159482.237976 383903.373993 24.271999 -0.180910 0.454481 0.872192 
159482.239014 383902.088013 26.761999 0.161317 0.589485 0.791508 
159482.254028 383900.766998 26.886000 0.318792 0.119715 0.940234 
159482.283020 383898.757996 27.080999 0.318554 0.102630 0.942333 
159482.296997 383897.453003 27.207001 0.315275 0.105092 0.943164 
159482.304016 383898.545013 27.106001 0.318554 0.102630 0.942333 
159482.304993 383900.338013 26.886000 0.319267 0.105532 0.941770 
159482.357971 383904.322998 24.254000 -0.080222 -0.084741 0.993168 
159482.377991 383897.175995 27.232000 0.315275 0.105092 0.943164 
159482.379028 383899.240997 27.014000 0.317755 0.102373 0.942630 
159482.379028 383903.067993 24.254999 -0.188225 0.525524 0.829696 
159482.385986 383901.536987 26.771999 0.288736 0.280031 0.915540 
159482.392029 383899.674011 26.952000 0.318554 0.102630 0.942333 
159482.445984 383904.175995 24.299999 -0.113310 0.018702 0.993384 
159482.447021 383902.299011 26.670000 0.126464 0.626370 0.769200 
159482.466980 383899.269012 26.924999 0.320946 0.102543 0.941530 
159482.497986 383901.770996 26.700001 0.220868 0.458264 0.860936 
159482.510010 383902.074005 26.628000 0.148206 0.588332 0.794922 
159482.510986 383898.056000 27.075001 0.318465 0.105267 0.942071 
159482.538025 383900.415985 26.843000 0.321663 0.105441 0.940965 
159482.544006 383903.653015 24.271999 -0.178794 0.417185 0.891061 
159482.556030 383900.944000 26.730000 0.319519 0.161834 0.933658 
159482.594971 383898.187012 27.059999 0.318465 0.105267 0.942071 
159482.630005 383898.933014 26.955999 0.318554 0.102630 0.942333 
159482.638000 383896.852997 27.212999 0.315275 0.105092 0.943164 
159482.648987 383899.358002 26.900999 0.321753 0.102801 0.941226 
159482.664001 383897.194000 27.115000 0.316068 0.105356 0.942869 
159482.669006 383898.484009 26.954000 0.318465 0.105267 0.942071 
159482.679993 383900.074005 26.788000 0.322473 0.105707 0.940658 
159482.710999 383901.975006 26.613001 0.212592 0.483986 0.848860 
159482.721008 383902.829987 24.284000 -0.166577 0.550754 0.817877 
159482.726990 383904.066986 24.280001 -0.160429 0.212601 0.963879 
159482.742981 383903.809998 24.278999 -0.169094 0.376553 0.910832 
159482.750977 383901.277008 26.624001 0.296859 0.248100 0.922128 
159482.760010 383901.446991 26.653000 0.283453 0.289268 0.914319 
159482.791016 383900.105011 26.757000 0.324868 0.105615 0.939844 
159482.809998 383902.582001 26.493000 0.098339 0.647274 0.755887 
159482.835999 383899.010010 26.846001 0.320946 0.102543 0.941530 
159482.854004 383897.868011 27.004000 0.319267 0.105532 0.941770 
159482.892029 383897.786011 26.965000 0.318465 0.105267 0.942071 
159482.896973 383901.799011 26.514999 0.229788 0.437048 0.869590 
159482.903992 383903.402008 24.274000 -0.165886 0.474171 0.864664 
159482.914978 383898.584015 26.889000 0.318465 0.105267 0.942071 
159482.918030 383899.027008 26.844999 0.321663 0.105441 0.940965 
159482.929993 383900.679993 26.625999 0.318471 0.128743 0.939149 
159482.961975 383901.665985 26.546000 0.242049 0.387575 0.889493 
159483.004028 383896.954010 27.007000 0.316068 0.105356 0.942869 
159483.017029 383898.239014 26.875999 0.319267 0.105532 0.941770 
159483.026001 383903.459991 24.278999 -0.150541 0.480853 0.863781 
159483.031982 383901.113007 26.584999 0.314897 0.186139 0.930695 
159483.046997 383902.600006 24.278999 -0.149833 0.547411 0.823342 
159483.059998 383903.834991 24.275000 -0.155090 0.350700 0.923556 
159483.067017 383899.799988 26.666000 0.324958 0.102970 0.940106 
159483.075012 383904.273010 24.288000 -0.126224 0.121415 0.984544 
159483.078003 383899.750000 26.716999 0.324958 0.102970 0.940106 
159483.080017 383902.250000 26.424999 0.134896 0.573680 0.807895 
159483.101013 383901.029999 26.535999 0.311458 0.173032 0.934373 
159483.114990 383902.615997 26.344000 0.104102 0.611417 0.784431 
159483.135010 383897.522003 26.952000 0.318465 0.105267 0.942071 
159483.174011 383898.712006 26.805000 0.324868 0.105615 0.939844 
159483.174988 383898.769989 26.750000 0.324868 0.105615 0.939844 
159483.197021 383898.235992 26.848000 0.319267 0.105532 0.941770 
159483.229980 383901.335999 26.507000 0.302117 0.225524 0.926209 
159483.234009 383904.412994 24.277000 -0.086103 0.065975 0.994099 
159483.242004 383897.540009 26.874001 0.321663 0.105441 0.940965 
159483.252991 383903.157013 24.268000 -0.135807 0.506719 0.851347 
159483.257996 383901.542999 26.427000 0.280319 0.318478 0.905535 
159483.291992 383900.424988 26.532000 0.324958 0.102970 0.940106 
159483.327026 383900.752014 26.533001 0.320903 0.128632 0.938336 
159483.335999 383899.433990 26.667000 0.324868 0.105615 0.939844 
159483.349976 383901.917999 26.377001 0.206975 0.451175 0.868103 
159483.359009 383903.921997 24.278999 -0.142390 0.302408 0.942483 
159483.388000 383897.209991 26.902000 0.319267 0.105532 0.941770 
159483.406006 383897.964996 26.764999 0.322473 0.105707 0.940658 
159483.411987 383904.541992 24.299999 -0.075548 0.015961 0.997014 
159483.416992 383899.553986 26.577999 0.324868 0.105615 0.939844 
159483.429016 383903.575989 24.263000 -0.138664 0.433146 0.890594 
159483.453979 383898.368011 26.726999 0.325686 0.105881 0.939531 
159483.458984 383897.914001 26.778000 0.322473 0.105707 0.940658 
159483.460999 383902.372986 26.264999 0.146692 0.549725 0.822365 
159483.461975 383900.776001 26.431000 0.320903 0.128632 0.938336 
159483.507996 383900.996002 26.427000 0.310285 0.164106 0.936372 
159483.552979 383902.733002 26.229000 0.112348 0.567577 0.815619 
159483.557983 383898.501007 26.638000 0.325592 0.108531 0.939261 
159483.573975 383900.446014 26.474001 0.324958 0.102970 0.940106 
159483.575012 383902.933014 24.264999 -0.107668 0.503885 0.857034 
159483.599976 383897.289001 26.781000 0.322473 0.105707 0.940658 
159483.599976 383899.110992 26.594000 0.324868 0.105615 0.939844 
159483.606995 383901.601013 26.332001 0.278119 0.298504 0.912987 
159483.609985 383904.151001 24.267000 -0.109982 0.252312 0.961375 
159483.625977 383901.283997 26.334999 0.307899 0.203860 0.929322 
159483.650024 383902.937012 26.103001 0.072729 0.571848 0.817129 
159483.653015 383903.559998 24.260000 -0.126304 0.438516 0.889804 
159483.664001 383900.161011 26.417000 0.324958 0.102970 0.940106 
159483.684998 383904.204987 24.292000 -0.100922 0.244002 0.964509 
159483.731018 383897.579010 26.729000 0.325592 0.108531 0.939261 
159483.731995 383898.024994 26.679001 0.325592 0.108531 0.939261 
159483.771973 383899.303009 26.489000 0.324868 0.105615 0.939844 
159483.776978 383897.701996 26.653999 0.325592 0.108531 0.939261 
159483.786011 383903.325989 24.253000 -0.105994 0.462132 0.880454 
159483.791016 383900.645996 26.355000 0.324635 0.114498 0.938883 
159483.828979 383902.394989 26.152000 0.161491 0.508178 0.845976 
159483.833984 383900.514008 26.337000 0.324958 0.102970 0.940106 
159483.846008 383902.100006 26.150999 0.204343 0.460891 0.863611 
159483.851013 383898.799988 26.554001 0.325686 0.105881 0.939531 
159483.859009 383900.093994 26.421000 0.324958 0.102970 0.940106 
159483.867004 383901.282013 26.264999 0.311559 0.185817 0.931882 
159483.885986 383903.203003 26.039000 0.054606 0.541860 0.838693 
159483.893982 383904.820007 24.302999 -0.045054 -0.030385 0.998522 
159483.906982 383898.253998 26.561001 0.325686 0.105881 0.939531 
159483.939026 383903.920990 24.261999 -0.109936 0.351522 0.929702 
159483.971985 383903.852997 24.275000 -0.110729 0.362262 0.925476 
159483.973999 383901.039001 26.229000 0.308955 0.173181 0.935177 
159483.995972 383897.700012 26.635000 0.325592 0.108531 0.939261 
159484.000977 383897.246002 26.676001 0.325686 0.105881 0.939531 
159484.026001 383902.670990 26.023001 0.120231 0.517140 0.847414 
159484.041992 383900.337006 26.309999 0.324958 0.102970 0.940106 
159484.054993 383899.886993 26.327000 0.324958 0.102970 0.940106 
159484.091980 383902.071014 26.098000 0.230123 0.408282 0.883374 
159484.114990 383899.781006 26.358999 0.324868 0.105615 0.939844 
159484.119019 383899.059998 26.395000 0.324868 0.105615 0.939844 
159484.135010 383897.450012 26.566999 0.325592 0.108531 0.939261 
159484.135010 383903.083008 24.281000 -0.078772 0.446377 0.891371 
159484.140015 383898.445007 26.493999 0.325592 0.108531 0.939261 
159484.140991 383900.942993 26.208000 0.322310 0.134636 0.937011 
159484.140991 383902.886993 26.007000 0.089671 0.519522 0.849739 
159484.140991 383904.743011 24.282000 -0.067064 0.024484 0.997448 
159484.153992 383904.500000 24.285000 -0.082842 0.162081 0.983294 
159484.193970 383900.260986 26.219999 0.324868 0.105615 0.939844 
159484.224976 383903.071991 25.899000 0.074474 0.507269 0.858564 
159484.226013 383901.833008 26.048000 0.256888 0.344964 0.902778 
159484.270996 383897.362000 26.580999 0.325686 0.105881 0.939531 
159484.302979 383897.975006 26.455999 0.322381 0.108352 0.940389 
159484.307983 383903.662994 24.263000 -0.088869 0.400595 0.911935 
159484.328979 383899.983002 26.253000 0.324868 0.105615 0.939844 
159484.333008 383900.786011 26.129999 0.322310 0.134636 0.937011 
159484.351990 383901.751007 26.055000 0.260681 0.321846 0.910198 
159484.377991 383902.424011 25.934999 0.187335 0.446950 0.874724 
159484.388000 383899.445007 26.323000 0.324868 0.105615 0.939844 
159484.393005 383899.649994 26.243000 0.324868 0.105615 0.939844 
159484.413025 383898.110992 26.443001 0.325592 0.108531 0.939261 
159484.424011 383904.165009 24.287001 -0.092572 0.288147 0.953101 
159484.431030 383900.585999 26.143999 0.324868 0.105615 0.939844 
159484.431030 383902.529999 25.952999 0.171470 0.452858 0.874939 
159484.473999 383903.170013 25.855000 0.082970 0.485162 0.870479 
159484.497009 383898.790985 26.306999 0.324868 0.105615 0.939844 
159484.518982 383904.479004 24.278000 -0.103370 0.161743 0.981404 
159484.531982 383904.792999 24.297001 -0.060016 0.062198 0.996258 
159484.562988 383899.997986 26.136999 0.324868 0.105615 0.939844 
159484.580994 383902.821014 25.813000 0.133378 0.457502 0.879149 
159484.581970 383901.580994 25.948999 0.282444 0.265239 0.921886 
159484.583984 383899.671997 26.207001 0.324868 0.105615 0.939844 
159484.614014 383901.427002 25.999001 0.302443 0.209600 0.929837 
159484.635986 383899.141998 26.261999 0.324868 0.105615 0.939844 
159484.658020 383904.996002 24.285000 -0.057607 0.017806 0.998181 
159484.671021 383897.716003 26.349001 0.325686 0.105881 0.939531 
159484.671021 383903.410004 24.268000 -0.049117 0.388953 0.919947 
159484.682007 383897.779999 26.374001 0.322473 0.105707 0.940658 
159484.687988 383900.269989 26.110001 0.324868 0.105615 0.939844 
159484.690002 383902.212006 25.895000 0.221618 0.383061 0.896744 
159484.702026 383900.524994 26.032000 0.324868 0.105615 0.939844 
159484.708008 383903.815002 24.263000 -0.073569 0.367846 0.926972 
159484.726013 383902.859009 25.815001 0.139023 0.445735 0.884304 
159484.750977 383902.160004 25.848000 0.236435 0.365666 0.900215 
159484.758972 383899.389008 26.138000 0.324868 0.105615 0.939844 
159484.789978 383904.471985 24.299000 -0.081531 0.183748 0.979586 
159484.812988 383903.352997 25.643000 0.081619 0.444061 0.892272 
159484.843018 383898.545990 26.214001 0.322473 0.105707 0.940658 
159484.843994 383904.250000 24.274000 -0.077822 0.266635 0.960651 
159484.854980 383899.338989 26.153999 0.324868 0.105615 0.939844 
159484.887024 383903.540009 25.635000 0.049985 0.436358 0.898384 
159484.888000 383901.089996 25.926001 0.314611 0.143005 0.938386 
159484.919006 383898.795013 26.174999 0.322473 0.105707 0.940658 
159484.926025 383901.338989 25.867001 0.304747 0.187858 0.933723 
159484.950012 383901.890991 25.827000 0.257504 0.297784 0.919248 
159484.950012 383902.558990 25.716999 0.196426 0.394307 0.897741 
159484.950989 383899.723999 26.028999 0.324868 0.105615 0.939844 
159484.955994 383897.441986 26.333000 0.324868 0.105615 0.939844 
159484.968994 383899.924988 26.034000 0.324868 0.105615 0.939844 
159484.989014 383904.765015 24.304001 -0.077722 0.121803 0.989507 
159484.989990 383905.279999 24.318001 -0.039802 -0.063467 0.997190 
159485.018005 383902.500000 25.747000 0.201867 0.381950 0.901867 
159485.020996 383897.467010 26.257000 0.324868 0.105615 0.939844 
159485.065979 383900.269012 25.941000 0.324868 0.105615 0.939844 
159485.067017 383904.130005 24.292000 -0.073906 0.302107 0.950405 
159485.099976 383899.149994 26.044001 0.325686 0.105881 0.939531 
159485.103027 383899.033997 26.084000 0.325686 0.105881 0.939531 
159485.138977 383901.885986 25.728001 0.269323 0.283725 0.920307 
159485.150024 383903.114990 25.577999 0.113023 0.408837 0.905582 
159485.176025 383903.183990 25.611000 0.101122 0.414185 0.904558 
159485.177002 383900.735992 25.868999 0.324868 0.105615 0.939844 
159485.189026 383905.210999 24.306999 -0.043400 -0.041283 0.998204 
159485.200012 383898.447998 26.132999 0.322473 0.105707 0.940658 
159485.200012 383901.585999 25.766001 0.291457 0.221057 0.930691 
159485.226013 383903.984009 24.264999 -0.037532 0.350734 0.935723 
159485.229004 383899.605988 25.996000 0.324868 0.105615 0.939844 
159485.239014 383898.269012 26.106001 0.322473 0.105707 0.940658 
159485.267029 383904.937988 24.320999 -0.084392 0.075390 0.993577 
159485.268005 383902.190002 25.695000 0.239330 0.332161 0.912354 
159485.283020 383901.088013 25.774000 0.318358 0.131407 0.938818 
159485.291016 383899.484009 25.937000 0.322473 0.105707 0.940658 
159485.312012 383902.303986 25.638000 0.217947 0.350736 0.910760 
159485.354004 383904.507996 24.301001 -0.068162 0.231752 0.970384 
159485.396973 383898.673004 26.035000 0.322473 0.105707 0.940658 
159485.427979 383900.427002 25.813999 0.324868 0.105615 0.939844 
159485.434998 383902.864990 25.559000 0.148478 0.388870 0.909249 
159485.435974 383900.006012 25.829000 0.324868 0.105615 0.939844 
159485.463013 383898.123993 26.090000 0.322473 0.105707 0.940658 
159485.487000 383898.876007 25.941999 0.323194 0.108625 0.940078 
159485.487976 383901.230988 25.702000 0.316496 0.137193 0.938621 
159485.489990 383899.283997 25.927000 0.322473 0.105707 0.940658 
159485.489990 383901.639008 25.632000 0.299706 0.212467 0.930072 
159485.497009 383903.550995 25.462999 0.079865 0.385788 0.919124 
159485.504028 383902.864990 25.499001 0.178740 0.378929 0.908000 
159485.520020 383904.623993 24.294001 -0.089721 0.192961 0.977096 
159485.530029 383901.869995 25.629000 0.278744 0.258731 0.924857 
159485.539001 383904.967010 24.308001 -0.072098 0.069879 0.994947 
159485.577026 383903.740997 24.282000 0.006324 0.355410 0.934689 
159485.607971 383898.006989 25.999001 0.324868 0.105615 0.939844 
159485.656982 383900.821991 25.659000 0.325686 0.105881 0.939531 
159485.661987 383899.222992 25.834999 0.324868 0.105615 0.939844 
159485.669983 383898.337006 25.989000 0.322473 0.105707 0.940658 
159485.685974 383902.040009 25.506001 0.259470 0.288141 0.921765 
159485.687988 383905.279999 24.326000 -0.082069 -0.011724 0.996558 
159485.692017 383904.273010 24.291000 -0.046776 0.294563 0.954486 
159485.713013 383902.520996 25.481001 0.210288 0.339036 0.916970 
159485.718994 383900.069000 25.768000 0.324868 0.105615 0.939844 
159485.736023 383897.790009 26.025999 0.324868 0.105615 0.939844 
159485.747009 383898.967010 25.872000 0.323194 0.108625 0.940078 
159485.770020 383905.532990 24.312000 -0.060506 -0.071507 0.995603 
159485.770996 383900.882996 25.667000 0.325686 0.105881 0.939531 
159485.776001 383903.631012 25.288000 0.078726 0.358938 0.930035 
159485.784973 383901.553009 25.587999 0.310102 0.182168 0.933087 
159485.788025 383903.194000 25.389000 0.153407 0.370147 0.916219 
159485.799011 383904.278015 24.305000 -0.023854 0.310105 0.950403 
159485.814026 383899.739990 25.743999 0.325686 0.105881 0.939531 
159485.836975 383898.630005 25.846001 0.323194 0.108625 0.940078 
159485.841980 383901.390015 25.544001 0.320762 0.152809 0.934752 
159485.869995 383904.734985 24.301001 -0.085259 0.159710 0.983475 
159485.885986 383902.596008 25.395000 0.225723 0.332115 0.915832 
159485.931030 383898.016998 25.913000 0.324868 0.105615 0.939844 
159485.960022 383904.942993 24.305000 -0.097348 0.113768 0.988727 
159485.966003 383899.765015 25.698999 0.325686 0.105881 0.939531 
159485.973999 383902.200012 25.441000 0.269323 0.283725 0.920307 
159485.974976 383897.750000 25.905001 0.324868 0.105615 0.939844 
159486.002991 383898.983002 25.757999 0.322381 0.108352 0.940389 
159486.020996 383900.566986 25.569000 0.325686 0.105881 0.939531 
159486.030029 383898.618988 25.823000 0.323194 0.108625 0.940078 
159486.031982 383900.559998 25.596001 0.325686 0.105881 0.939531 
159486.039978 383902.881989 25.343000 0.197881 0.343088 0.918223 
159486.052002 383905.428986 24.325001 -0.095970 -0.014018 0.995286 
159486.065979 383904.011993 24.290001 0.031909 0.330580 0.943238 
159486.067017 383901.773010 25.436001 0.312069 0.204751 0.927734 
159486.078003 383901.194000 25.525000 0.320903 0.128632 0.938336 
159486.098999 383905.300995 24.318001 -0.110657 0.016434 0.993723 
159486.109985 383903.397003 25.232000 0.154194 0.343115 0.926551 
159486.169006 383899.489990 25.643999 0.325592 0.108531 0.939261 
159486.187012 383901.147003 25.447001 0.322729 0.122880 0.938481 
159486.203003 383903.743988 25.200001 0.115621 0.344143 0.931771 
159486.216003 383904.626007 24.308001 -0.062693 0.224956 0.972350 
159486.221008 383898.359985 25.752001 0.325686 0.105881 0.939531 
159486.239014 383899.429993 25.649000 0.325592 0.108531 0.939261 
159486.239014 383901.872986 25.374001 0.320116 0.211988 0.923356 
159486.244019 383902.345001 25.301001 0.282187 0.285082 0.916023 
159486.244019 383904.473999 24.296000 -0.038291 0.260624 0.964681 
159486.302979 383900.227997 25.528000 0.325686 0.105881 0.939531 
159486.309998 383898.274994 25.774000 0.324868 0.105615 0.939844 
159486.310974 383903.864990 25.058001 0.094618 0.329165 0.939520 
159486.327026 383902.531006 25.264999 0.267398 0.293415 0.917827 
159486.343994 383905.066010 24.365000 -0.102864 0.091306 0.990496 
159486.348999 383900.860992 25.455000 0.325686 0.105881 0.939531 
159486.388977 383898.710999 25.649000 0.325592 0.108531 0.939261 
159486.392029 383900.304993 25.457001 0.325686 0.105881 0.939531 
159486.424011 383901.519989 25.320999 0.323228 0.152674 0.933924 
159486.424988 383905.079010 24.441999 -0.085989 0.095161 0.991741 
159486.474976 383903.140015 25.122000 0.227501 0.319074 0.920019 
159486.484985 383903.395996 25.129999 0.187238 0.330834 0.924927 
159486.487000 383901.567993 25.333000 0.322831 0.162108 0.932470 
159486.487000 383905.701996 24.413000 -0.104097 -0.074355 0.991784 
159486.487000 383905.779999 22.392000 0.690240 0.300874 0.658061 
159486.492004 383899.117004 25.621000 0.325592 0.108531 0.939261 
159486.497009 383904.278992 24.322001 0.001214 0.280326 0.959904 
159486.533997 383899.231995 25.552999 0.325592 0.108531 0.939261 
159486.564026 383904.253998 24.356001 0.003653 0.286117 0.958188 
159486.572998 383897.947998 25.702999 0.324868 0.105615 0.939844 
159486.575012 383899.890991 25.490999 0.325592 0.108531 0.939261 
159486.581970 383900.868988 25.339001 0.324868 0.105615 0.939844 
159486.581970 383902.216003 25.232000 0.321590 0.240832 0.915740 
159486.598022 383898.092987 25.658001 0.325686 0.105881 0.939531 
159486.609985 383902.084991 25.186001 0.320335 0.234146 0.917911 
159486.612976 383900.535004 25.405001 0.325686 0.105881 0.939531 
159486.635010 383904.701996 24.476999 -0.027693 0.234786 0.971653 
159486.656006 383903.623993 25.024000 0.171068 0.324056 0.930443 
159486.734009 383898.468994 25.561001 0.325686 0.105881 0.939531 
159486.736023 383903.085999 25.084999 0.253241 0.311124 0.916008 
159486.755005 383904.848999 24.465000 -0.077855 0.164094 0.983368 
159486.773987 383901.216003 25.250000 0.324635 0.114498 0.938883 
159486.778992 383898.765015 25.547001 0.325686 0.105881 0.939531 
159486.783020 383901.266998 25.224001 0.326078 0.120419 0.937642 
159486.784973 383900.026001 25.368000 0.325592 0.108531 0.939261 
159486.825989 383899.584991 25.437000 0.323194 0.108625 0.940078 
159486.846008 383901.893005 25.170000 0.338286 0.191082 0.921439 
159486.851013 383902.875000 25.021999 0.283453 0.289268 0.914319 
159486.859985 383903.803009 24.948000 0.146539 0.321838 0.935386 
159486.867004 383904.058014 24.825001 0.076613 0.305152 0.949217 
159486.875977 383898.989990 25.445999 0.325592 0.108531 0.939261 
159486.885010 383904.394012 24.440001 0.049288 0.286883 0.956697 
159486.888977 383900.194000 25.330000 0.325592 0.108531 0.939261 
159486.922974 383900.626007 25.237000 0.324868 0.105615 0.939844 
159487.002014 383903.381012 24.945000 0.226320 0.308877 0.923783 
159487.005005 383901.806000 25.093000 0.339556 0.181754 0.922858 
159487.026001 383902.730011 25.018000 0.313836 0.272964 0.909394 
159487.052979 383900.872986 25.216000 0.324868 0.105615 0.939844 
159487.057983 383898.421997 25.503000 0.325686 0.105881 0.939531 
159487.091980 383899.256989 25.384001 0.325592 0.108531 0.939261 
159487.104004 383901.575989 25.112000 0.336993 0.138924 0.931201 
159487.122986 383899.787994 25.281000 0.325592 0.108531 0.939261 
159487.124023 383901.024994 25.129999 0.324868 0.105615 0.939844 
159487.125977 383898.191010 25.465000 0.324868 0.105615 0.939844 
159487.146973 383903.447998 24.910999 0.229823 0.306907 0.923575 
159487.156006 383899.867004 25.301001 0.325592 0.108531 0.939261 
159487.208984 383902.619995 24.917999 0.328413 0.255433 0.909340 
159487.258972 383898.722992 25.355000 0.325592 0.108531 0.939261 
159487.283997 383902.411987 24.961000 0.337770 0.233394 0.911833 
159487.314026 383900.351013 25.149000 0.323194 0.108625 0.940078 
159487.325012 383900.539001 25.155001 0.324868 0.105615 0.939844 
159487.354004 383901.561005 25.003000 0.340904 0.144919 0.928861 
159487.367004 383898.920013 25.320000 0.325592 0.108531 0.939261 
159487.369019 383903.118988 24.809999 0.280031 0.288736 0.915540 
159487.385986 383901.230988 25.042000 0.325686 0.105881 0.939531 
159487.408020 383899.554993 25.256001 0.325592 0.108531 0.939261 
159487.489014 383899.529999 25.181000 0.325592 0.108531 0.939261 
159487.507019 383900.753998 25.044001 0.322473 0.105707 0.940658 
159487.547974 383902.088013 24.916000 0.354770 0.186646 0.916134 
159487.588989 383902.354004 24.813999 0.352988 0.208911 0.912006 
159487.593994 383900.208008 25.099001 0.323194 0.108625 0.940078 
159487.614014 383898.471008 25.261999 0.325592 0.108531 0.939261 
159487.658020 383898.561005 25.261000 0.325592 0.108531 0.939261 
159487.669006 383900.881012 25.004999 0.322473 0.105707 0.940658 
159487.674988 383899.229004 25.197001 0.325592 0.108531 0.939261 
159487.687012 383900.088989 25.038000 0.322381 0.108352 0.940389 
159487.713013 383901.307007 24.896000 0.325592 0.108531 0.939261 
159487.797974 383901.781006 24.851999 0.342731 0.139019 0.929090 
159487.828003 383899.292999 25.108999 0.325592 0.108531 0.939261 
159487.859985 383900.505005 24.938000 0.322381 0.108352 0.940389 
159487.864014 383899.876007 25.052999 0.323194 0.108625 0.940078 
159487.929993 383900.559998 24.938000 0.322473 0.105707 0.940658 
159487.956970 383898.881989 25.136999 0.325592 0.108531 0.939261 
159488.049988 383899.834015 24.966000 0.322381 0.108352 0.940389 
159488.122009 383899.558014 25.013000 0.322381 0.108352 0.940389 
159488.208984 383900.217010 24.893000 0.322381 0.108352 0.940389 
159488.219971 383899.016998 24.997999 0.325592 0.108531 0.939261 
159488.237976 383898.535004 25.072001 0.325686 0.105881 0.939531 
159488.250000 383900.230988 24.816000 0.322381 0.108352 0.940389 
159488.379028 383899.244995 24.927999 0.322381 0.108352 0.940389 
159488.392029 383899.592987 24.860001 0.322381 0.108352 0.940389 
159488.568970 383898.772003 24.908001 0.325592 0.108531 0.939261 
159488.653992 383898.903992 24.872999 0.325592 0.108531 0.939261 
159471.880981 383908.705994 21.773001 0.037919 0.011273 0.999217 
159471.982971 383908.071991 21.992001 0.044148 0.009240 0.998982 
159472.041992 383908.856995 21.573000 0.029369 0.007089 0.999544 
159472.106995 383908.075989 21.780001 0.040048 0.011295 0.999134 
159472.229980 383907.772003 21.865999 0.042270 0.013403 0.999016 
159472.281982 383908.420013 21.546000 0.031455 0.009132 0.999463 
159472.304016 383908.529999 21.573000 0.027289 0.009096 0.999586 
159472.340027 383909.020996 21.583000 -0.019244 -0.017218 0.999667 
159472.411987 383908.959015 21.570000 -0.017184 -0.017184 0.999705 
159472.473022 383907.480988 21.579000 0.035798 0.013296 0.999271 
159472.487976 383907.803009 21.546000 0.033619 0.009169 0.999393 
159472.575012 383906.959015 21.577999 0.040046 0.013349 0.999109 
159472.601990 383908.162994 21.562000 0.025117 0.005023 0.999672 
159472.616028 383908.187012 21.556999 0.025117 0.005023 0.999672 
159472.624023 383906.143005 21.976000 0.051334 0.024095 0.998391 
159472.643005 383908.644989 21.594000 -0.011009 -0.015012 0.999827 
159472.703003 383905.924988 21.944000 0.051229 0.021955 0.998446 
159472.731018 383907.164001 21.559999 0.033755 0.013297 0.999342 
159472.736023 383908.733002 21.563000 -0.008990 -0.014983 0.999847 
159472.838013 383907.558990 21.547001 0.027289 0.009096 0.999586 
159472.867004 383905.188995 21.896000 0.049043 0.019826 0.998600 
159472.872986 383907.828003 21.569000 0.029428 0.009133 0.999525 
159472.877991 383905.835999 21.764999 0.042441 0.019668 0.998905 
159472.905029 383905.132996 21.929001 0.046863 0.019787 0.998705 
159472.906982 383908.319000 21.575001 -0.005004 -0.021016 0.999767 
159472.940979 383906.700989 21.547001 0.031645 0.015312 0.999382 
159472.986023 383907.928009 21.556000 0.023109 0.007033 0.999708 
159472.987976 383909.015991 21.587000 -0.011031 -0.017048 0.999794 
159473.030029 383906.789001 21.596001 0.029486 0.013218 0.999478 
159473.103027 383904.455994 21.958000 0.046766 0.019746 0.998711 
159473.114990 383908.467987 21.563999 -0.002991 -0.016947 0.999852 
159473.122986 383905.618988 21.563000 0.035871 0.013324 0.999268 
159473.130981 383904.864990 21.868999 0.038305 0.021741 0.999030 
159473.130981 383905.528015 21.579000 0.037918 0.013323 0.999192 
159473.145996 383907.490997 21.561001 0.023109 0.007033 0.999708 
159473.159973 383907.334991 21.566999 0.025268 0.011118 0.999619 
