ply
format ascii 1.0
element vertex 900
property double x
property double y
property double z
property double distance_to_plane
end_header
85399.8999999999942 446937 6.21499999999999986 0
85399.8000000000029 446936 5.59400000000000031 0
85399.6000000000058 446936 2.29700000000000015 0
85399.6999999999971 446937 2.83000000000000007 0
85399.8000000000029 446937 6.18700000000000028 0
85399.8999999999942 446938 5.62899999999999956 0
85400 446938 5.39299999999999979 0
85399.6999999999971 446936 4.82899999999999974 0
85399.6999999999971 446936 2.42799999999999994 0
85399.6000000000058 446935 2.23200000000000021 0
85399.6999999999971 446939 4.87699999999999978 0
85399.6999999999971 446939 5.12699999999999978 0
85399.5 446937 6.39599999999999991 0.00713323702370695888
85399.6000000000058 446938 5.59400000000000031 0
85399.3999999999942 446935 7.55400000000000027 0
85399.5 446937 6.70800000000000018 0.268832206933272533
85399.6000000000058 446939 5.37800000000000011 0
85399.3000000000029 446935 6.21199999999999974 0
85399.5 446937 6.16500000000000004 0
85399.3999999999942 446936 7.23500000000000032 0.186798296986116191
85399.3999999999942 446936 7 0
85399.1999999999971 446935 3.00300000000000011 0
85399.3000000000029 446935 2.52400000000000002 0
85399.3000000000029 446935 7.40000000000000036 0.0207010284081970732
85399.1999999999971 446935 1.82499999999999996 0
85399.3000000000029 446935 6.63400000000000034 0
85399.6000000000058 446938 5.86099999999999977 0.0825646026174471082
85399.3000000000029 446935 5.27500000000000036 0
85399.1999999999971 446935 4.12800000000000011 0
85399.3999999999942 446940 4.85200000000000031 0
85399.3000000000029 446939 5.33300000000000018 0.080470382740066862
85399.3000000000029 446938 5.61800000000000033 0
85399 446935 7.46999999999999975 0.142019005278768401
85399.3999999999942 446939 5.09400000000000031 0
85398.8000000000029 446934 5.74000000000000021 0
85399.1000000000058 446936 6.95800000000000018 0
85398.8999999999942 446935 7.00699999999999967 0
85398.8999999999942 446934 6.68700000000000028 0
85399 446935 7.20199999999999996 0
85398.8000000000029 446934 3.5169999999999999 0
85398.8000000000029 446934 2.21099999999999985 0
85399.1999999999971 446937 6.37899999999999956 0
85399.1999999999971 446938 5.84999999999999964 0
85399.1999999999971 446938 6.13600000000000012 0.230196638709858153
85398.6000000000058 446933 2.51799999999999979 0
85398.6999999999971 446934 2.38899999999999979 0
85399.1000000000058 446936 7.19899999999999984 0.0942925327609176467
85398.8999999999942 446934 6.82500000000000018 0
85399.1000000000058 446937 6.63900000000000023 0.127925873896098441
85398.8000000000029 446934 4.72700000000000031 0
85399 446935 7.3879999999999999 0.0737362636568359708
85399 446939 5.06599999999999984 0
85399 446939 5.30100000000000016 0
85398.8999999999942 446938 6.09199999999999964 0.131023530415958323
85398.8999999999942 446937 6.38300000000000001 0
85398.8000000000029 446937 6.88499999999999979 0.271990205167835619
85398.6999999999971 446936 7.41300000000000026 0.190711546236363244
85398.8000000000029 446937 6.60400000000000009 0.0363015136978539696
85399.1000000000058 446940 4.85099999999999998 0
85398.6000000000058 446935 7.00499999999999989 0
85398.6000000000058 446934 6.83699999999999974 0.210693536343839277
85398.6999999999971 446935 7.42400000000000038 0.166741884298691745
85398.5 446934 6.62800000000000011 0.0576517815488510263
85398.3000000000029 446932 5.23099999999999987 0
85398.8999999999942 446938 5.82000000000000028 0
85398.1999999999971 446932 4.06400000000000006 0
85398.1999999999971 446932 2.63099999999999978 0
85398.3999999999942 446932 7.5 0
85398.6999999999971 446936 7.17499999999999982 0
85398.3999999999942 446932 7.89100000000000001 0
85398.5 446933 6.24000000000000021 0.246226886405560924
85398.1999999999971 446932 2.17399999999999993 0
85398.6000000000058 446935 7.19000000000000039 0
85399 446939 5.59700000000000042 0.239879258230025094
85398.3999999999942 446933 6.06799999999999962 0.12384871294010566
85398.5 446934 6.46799999999999997 0
85398.3000000000029 446932 6.34700000000000042 0.88937700076623516
85398.8000000000029 446940 4.80299999999999994 0
85398.6999999999971 446939 5.27099999999999991 0
85398.6000000000058 446938 6.32099999999999973 0.260829115263213007
85398.5 446936 7.10200000000000031 0
85398.5 446937 6.61899999999999977 0
85398.3999999999942 446936 7.37800000000000011 0.099063824957691643
85398.3000000000029 446935 7.04300000000000015 0
85398.1999999999971 446934 6.66999999999999993 0.155808850737848087
85398.5 446937 6.83100000000000041 0.164429598962901824
85398.6999999999971 446940 5.04800000000000004 0
85398.1999999999971 446934 6.43700000000000028 0
85398.1000000000058 446933 6.09700000000000042 0.21131571273793906
85397.8999999999942 446932 4.59299999999999997 0
85398.3000000000029 446935 7.20199999999999996 0.0659159608626980753
85398.3999999999942 446936 7.43799999999999972 0.149388812423895539
85398.1000000000058 446933 7.96600000000000019 1.76779577028476464
85398 446932 7.62600000000000033 2.01755354103737838
85397.8999999999942 446932 3.05900000000000016 0
85398.3000000000029 446935 6.82000000000000028 0
85398.1000000000058 446932 7.9870000000000001 2.29709038415759226
85398.6000000000058 446938 6.04800000000000004 0.0318504221220585193
85397.8000000000029 446932 1.64300000000000002 0
85398 446932 6.08699999999999974 0.735845940669847876
85398.1999999999971 446934 6.26600000000000001 0
85398.6999999999971 446939 5.51499999999999968 0.108899726007735009
85398.6000000000058 446938 5.82399999999999984 0
85397.8999999999942 446932 1.49900000000000011 0
85397.8999999999942 446932 2.28799999999999981 0
85398.3999999999942 446939 5.27700000000000014 0
85398.3000000000029 446939 5.48200000000000021 0
85398.3999999999942 446940 4.9740000000000002 0
85398.1999999999971 446937 6.81599999999999984 0.0895802346352757989
85398.3000000000029 446938 5.99399999999999977 0
85397.8999999999942 446934 6.69000000000000039 0.235575364049268016
85398.3000000000029 446939 5.77500000000000036 0.244009482501402086
85397.8999999999942 446934 6.44899999999999984 0.0348675010304519278
85397.8000000000029 446933 7.88499999999999979 1.76363110336091888
85397.8000000000029 446934 6.08499999999999996 0
85397.8999999999942 446935 6.85400000000000009 0
85397.6999999999971 446932 7.82800000000000029 2.24911472477587848
85398.1000000000058 446936 7.37800000000000011 0.0367957075208918474
85398.1000000000058 446936 7.50399999999999956 0.142478181248470531
85398.1000000000058 446936 7.05499999999999972 0
85398 446935 7.40000000000000036 0.293821631979268361
85397.8000000000029 446934 6.29300000000000015 0
85397.8000000000029 446933 5.9139999999999997 0.122206708803385827
85397.6999999999971 446932 6.39799999999999969 1.0581843358319476
85398 446935 7.42300000000000004 0.312974108306983856
85397.5 446932 2.50199999999999978 0
85397.5 446932 2.4780000000000002 0
85397.5 446932 0.14499999999999999 0
85397.6999999999971 446932 7.90000000000000036 2.30907765343286497
85397.6000000000058 446932 3.22900000000000009 0
85398.1999999999971 446938 6.24899999999999967 0.117414973672818085
85398.1999999999971 446937 6.56599999999999984 0
85397.6000000000058 446932 4.8360000000000003 0
85398 446940 5.24600000000000044 0
85397.8999999999942 446938 5.99899999999999967 0
85397.8000000000029 446937 7.03000000000000025 0.186048533446104308
85397.8999999999942 446938 6.21199999999999974 0.0241131138923668074
85397.6999999999971 446936 7.52899999999999991 0.0804227694193805076
85397.6999999999971 446936 7.33000000000000007 0
85397.6000000000058 446935 7.40599999999999969 0.00233651653850403332
85397.5 446934 7.48599999999999977 0.982876219225562675
85398.1000000000058 446940 4.95399999999999974 0
85397.8999999999942 446938 6.51199999999999957 0.275738051417588281
85397.6999999999971 446936 7.40000000000000036 0
85398 446939 5.45099999999999962 0
85397.3999999999942 446933 5.5389999999999997 0
85397.3000000000029 446933 5.3490000000000002 0
85397.3000000000029 446932 5.13999999999999968 0.0947834823314869235
85397.3999999999942 446933 5.73099999999999987 0.0541947482749330703
85397.5 446934 6.30299999999999994 0
85397.1999999999971 446932 2.61799999999999988 0
85397.6000000000058 446935 7.39700000000000024 0
85397.3999999999942 446933 5.93299999999999983 0.222417847031638333
85398 446939 5.73399999999999999 0.147352623556537221
85397.1999999999971 446932 4.73800000000000043 0
85397.1000000000058 446931 2.54199999999999982 0
85397.1000000000058 446931 2.52499999999999991 0
85397.1999999999971 446932 4.97799999999999976 0
85397.1000000000058 446931 2.5129999999999999 0
85397.1999999999971 446932 2.6120000000000001 0
85397.5 446934 7.45600000000000041 0.957891837957315695
85397.5 446934 6.07599999999999962 0
85397.6000000000058 446934 7.39700000000000024 0.887660403458192415
85397.8000000000029 446937 6.7889999999999997 0
85397.6000000000058 446939 5.44899999999999984 0
85397.6000000000058 446939 5.69399999999999995 0.03077847528145106
85397.3999999999942 446937 6.76999999999999957 0
85397.5 446938 6.00199999999999978 0
85397.3999999999942 446937 6.98800000000000043 0.0677968855888113481
85397.3000000000029 446936 7.52700000000000014 0
85397.1999999999971 446935 7.40599999999999969 0
85397.1999999999971 446935 7.4009999999999998 0
85397.1000000000058 446934 7.41099999999999959 0
85397.1000000000058 446934 6.12199999999999989 0
85397.3000000000029 446936 7.39499999999999957 0
85397.6999999999971 446940 4.9480000000000004 0
85397 446934 5.93499999999999961 0
85397.3000000000029 446935 7.39799999999999969 0
85397.3999999999942 446936 7.31299999999999972 0
85397.6999999999971 446940 5.21300000000000008 0
85396.8000000000029 446932 2.56700000000000017 0
85397.1999999999971 446934 7.40200000000000014 0
85396.8000000000029 446932 2.57500000000000018 0
85397.5 446938 6.18900000000000006 0
85396.6999999999971 446931 2.52800000000000002 0
85396.8999999999942 446932 4.98599999999999977 2.39962509527231616
85396.6000000000058 446931 2.39000000000000012 0
85396.8000000000029 446932 4.73800000000000043 2.15226548631621695
85396.8999999999942 446933 5.36099999999999977 0
85396.8000000000029 446932 2.58000000000000007 0
85397 446933 5.71600000000000019 0.125942906876451294
85396.8999999999942 446932 5.14400000000000013 2.55757868547257505
85397.5 446938 6.49600000000000044 0.179293898177534161
85396.6999999999971 446931 2.57600000000000007 0
85397 446933 5.5259999999999998 0
85397.3000000000029 446940 5.20699999999999985 0
85397 446937 6.72599999999999998 0
85396.8999999999942 446936 7.51600000000000001 0
85396.8999999999942 446936 7.40200000000000014 0
85397.1999999999971 446939 5.69399999999999995 0
85397.1999999999971 446940 5.41500000000000004 0
85396.6999999999971 446934 7.4139999999999997 0
85397.1000000000058 446939 5.93299999999999983 0.127459479748539828
85397 446937 6.97799999999999976 0
85396.8000000000029 446935 7.39599999999999991 0
85397 446937 7.26600000000000001 0.217945171030257318
85396.6000000000058 446933 5.75600000000000023 0.243421207331626727
85396.6999999999971 446934 6.20300000000000029 0
85397.1000000000058 446938 6.49000000000000021 0.0912372427999635638
85396.5 446932 4.99000000000000021 2.40589410147187621
85396.8999999999942 446936 7.39299999999999979 0
85396.6999999999971 446934 7.47200000000000042 0.0106822150856485162
85396.5 446933 5.35799999999999965 0
85396.3999999999942 446932 4.70999999999999996 2.1265438919685673
85397.1000000000058 446938 6.17999999999999972 0
85396.5 446933 5.15399999999999991 0
85396.3999999999942 446932 2.63099999999999978 0
85396.3000000000029 446932 2.58199999999999985 0
85396.6000000000058 446934 5.92900000000000027 0
85396.6999999999971 446934 7.41000000000000014 0
85397.3000000000029 446940 4.94700000000000006 0
85396.1999999999971 446931 2.40799999999999992 0
85396.6000000000058 446933 5.53500000000000014 0.0593145326141737567
85396.3000000000029 446931 2.53799999999999981 0
85396.3999999999942 446932 2.58300000000000018 0
85396.8000000000029 446935 7.42499999999999982 0.00963276343576892
85396.3000000000029 446931 2.58899999999999997 0
85396.8000000000029 446941 4.95500000000000007 0
85396.6999999999971 446940 5.48399999999999999 0.171171078325321413
85396.5 446938 6.76400000000000023 0.196518450785796078
85396.8000000000029 446940 5.19099999999999984 0
85396.6999999999971 446939 5.66800000000000015 0
85396.3999999999942 446936 7.4009999999999998 0.0240799271629077924
85396.6000000000058 446939 6.17600000000000016 0.227495483380042191
85396.5 446937 7.28099999999999969 0.126729676017640847
85396.6000000000058 446938 6.45300000000000029 0
85396.1999999999971 446935 7.41199999999999992 0
85396.3000000000029 446935 7.41500000000000004 0
85396.3999999999942 446936 7.4009999999999998 0.0240799271629077924
85396.1999999999971 446934 7.48599999999999977 1.25680489044375365
85396.1000000000058 446933 5.56500000000000039 0.189545682487425288
85396.3999999999942 446936 7.54900000000000038 0.171923187425700424
85396.1999999999971 446934 6.20300000000000029 0.188119046732207945
85396 446932 4.98099999999999987 2.39973447148470331
85395.8999999999942 446932 4.72499999999999964 2.1443772123918019
85396.6000000000058 446939 5.98099999999999987 0.0639392739935032844
85396.1000000000058 446934 5.74300000000000033 0
85396.3000000000029 446935 7.40899999999999981 0
85395.8000000000029 446931 3.55500000000000016 0
85395.8000000000029 446931 2.52000000000000002 0
85395.8999999999942 446933 2.59600000000000009 0
85396 446933 5.36099999999999977 0.040698254825080965
85396.5 446937 6.97200000000000042 0
85396.1000000000058 446934 5.96499999999999986 0.0109131379013459907
85395.8000000000029 446932 2.58099999999999996 0
85395.6999999999971 446931 2.39999999999999991 0
85395.8999999999942 446932 2.58499999999999996 0
85396 446933 5.14900000000000002 0
85395.8000000000029 446932 2.58199999999999985 0
85396.1999999999971 446934 7.41999999999999993 1.20182962489686496
85396.3000000000029 446940 5.2110000000000003 0
85396.1999999999971 446939 5.96799999999999997 0
85396.3000000000029 446941 4.99899999999999967 0
85396 446937 7.03099999999999969 0
85395.8999999999942 446937 7.5389999999999997 0.218546780187932083
85396.1000000000058 446939 6.20999999999999996 0.152232780501007581
85395.8999999999942 446936 7.41300000000000026 0.0288399379446188445
85395.8000000000029 446936 7.41300000000000026 0.0274008173118554695
85396.1999999999971 446940 5.70899999999999963 0.256181044945524572
85395.6999999999971 446935 7.41099999999999959 0
85395.8000000000029 446935 7.40500000000000025 0
85395.8000000000029 446935 7.40000000000000036 0
85396.1000000000058 446938 6.70600000000000041 0.0648468062708487669
85395.6999999999971 446934 5.90700000000000003 0.0467652981024400741
85395.5 446933 5.34100000000000019 0.129328085014287414
85395.5 446933 4.94899999999999984 0
85395.8999999999942 446936 7.40500000000000025 0.0208484103629265824
85395.3999999999942 446932 4.7370000000000001 0
85395.3999999999942 446932 2.57900000000000018 0
85396.1000000000058 446938 6.50199999999999978 0
85395.6999999999971 446934 6.17499999999999982 0.269973645678225294
85395.6999999999971 446934 7.4740000000000002 1.35186783772656516
85395.3999999999942 446933 2.56999999999999984 0
85395.3000000000029 446932 2.59299999999999997 0
85395.6000000000058 446934 5.54399999999999959 0
85395.3000000000029 446931 2.53699999999999992 0
85395.6000000000058 446934 5.74099999999999966 0
85396.1999999999971 446940 5.43499999999999961 0.0263636020375419555
85396 446937 7.29399999999999959 0.0338242145642044592
85395.3000000000029 446931 2.39999999999999991 0
85395.3999999999942 446932 2.57299999999999995 0
85395.5 446933 5.17400000000000038 0
85395.8000000000029 446940 5.4009999999999998 0
85395.8999999999942 446941 5.19000000000000039 0
85395.6000000000058 446937 7.21600000000000019 0
85395.8000000000029 446940 5.70899999999999963 0.173156888363124845
85395.6999999999971 446938 6.47799999999999976 0
85395.5 446936 7.40000000000000036 0.0100349137403323053
85395.6999999999971 446939 6.20500000000000007 0.0650148749388156089
85395.5 446936 7.41300000000000026 0.0230207323898394614
85395.3000000000029 446934 7.49199999999999999 1.45108917881573007
85395.6000000000058 446938 6.98899999999999988 0.198416467648809353
85395.3000000000029 446935 7.42100000000000026 0.880471385552213381
85395.1999999999971 446934 5.56799999999999962 0
85395.1999999999971 446934 5.74300000000000033 0.0154622848569289546
85395.3000000000029 446935 6.25199999999999978 0
85395.8000000000029 446939 5.92400000000000038 0
85395.1999999999971 446933 5.35700000000000021 0.205826258246402993
85395 446933 2.56899999999999995 0
85395 446933 2.65399999999999991 0
85395.3999999999942 446936 7.40599999999999969 0.0145683401957919026
85395.8999999999942 446941 4.96699999999999964 0
85394.8999999999942 446931 2.4049999999999998 0
85395 446932 2.57299999999999995 0
85395.1000000000058 446933 5.20899999999999963 0.103619380821242016
85395.6999999999971 446938 6.69599999999999973 0
85395.3999999999942 446935 7.40299999999999958 0
85394.8999999999942 446932 2.53399999999999981 0
85395.3999999999942 446935 7.41000000000000014 0
85395 446933 4.70300000000000029 0
85394.8999999999942 446932 2.58499999999999996 0
85395.5 446937 7.5389999999999997 0.135499811832310912
85395.1000000000058 446933 4.97799999999999976 0
85395.3000000000029 446934 5.94000000000000039 0.158479643739625364
85395.6000000000058 446941 4.90000000000000036 0
85395.6000000000058 446941 5.16899999999999959 0
85395.3000000000029 446938 6.92600000000000016 0.0832924193945545344
85395.3999999999942 446939 6.44599999999999973 0.20488545727931104
85395.6000000000058 446940 5.40299999999999958 0
85395.1999999999971 446937 7.40299999999999958 0
85395.1000000000058 446936 7.41899999999999959 0.023174073925804943
85395.5 446940 5.62999999999999989 0.0446275373563308417
85395.5 446940 5.89900000000000002 0.270251231284521221
85395 446935 7.49500000000000011 1.00525130155910802
85395.3999999999942 446939 6.15000000000000036 0
85395.1000000000058 446935 7.41199999999999992 0.91506380374965135
85395 446935 7.41099999999999959 0.935275664472100976
85394.8999999999942 446934 5.42400000000000038 0
85394.8999999999942 446934 5.5730000000000004 0
85394.8000000000029 446933 5.19000000000000039 0.150967210155117965
85395 446935 5.97900000000000009 0
85394.6999999999971 446933 2.56199999999999983 0
85395 446935 6.23800000000000043 0
85395.3000000000029 446937 7.47599999999999998 0.0411375056669614075
85394.6999999999971 446933 2.57900000000000018 0
85394.8000000000029 446933 5.02700000000000014 0.0152098943023362167
85395.1999999999971 446936 7.4480000000000004 0.0536024669097742157
85394.8999999999942 446934 5.79199999999999982 0.119385147677577658
85395.3000000000029 446937 7.23000000000000043 0
85394.6000000000058 446932 2.56899999999999995 0
85395.3999999999942 446938 6.67600000000000016 0
85394.8000000000029 446933 4.71199999999999974 0
85394.6000000000058 446932 2.55600000000000005 0
85394.6000000000058 446932 3.50599999999999978 0
85394.6000000000058 446931 2.41500000000000004 0
85395.1999999999971 446936 7.27799999999999958 0
85395.1999999999971 446940 5.61500000000000021 0
85395.3000000000029 446941 4.85200000000000031 0
85395.1999999999971 446940 5.87899999999999956 0.191208118025653462
85395.1000000000058 446939 6.35899999999999999 0.0696461079922403442
85395 446938 7.20800000000000018 0.257523824895885989
85395.1000000000058 446938 6.68599999999999994 0
85394.8000000000029 446936 6.83199999999999985 0
85394.8999999999942 446937 7.50499999999999989 0
85394.6999999999971 446935 7.49500000000000011 1.06838601340727513
85394.8999999999942 446937 7.36599999999999966 0
85395.1999999999971 446940 5.41099999999999959 0
85394.6999999999971 446935 6.40500000000000025 0.160368817588873891
85394.6999999999971 446935 7.5 1.07255122991847829
85394.6999999999971 446935 6.01900000000000013 0
85395.1000000000058 446939 6.13400000000000034 0
85394.6000000000058 446934 5.61399999999999988 0.0342095211717643316
85394.8000000000029 446936 7.01799999999999979 0.138364303717450787
85394.8999999999942 446937 7.23099999999999987 0
85394.8000000000029 446935 7.48500000000000032 1.0390106764825433
85394.8000000000029 446936 6.58900000000000041 0
85394.3000000000029 446932 2.57399999999999984 0
85394.6000000000058 446934 5.80799999999999983 0.195804163393121372
85395 446938 6.89100000000000001 0
85394.3999999999942 446933 2.58599999999999985 0
85394.6999999999971 446935 6.12000000000000011 0
85395.3000000000029 446941 5.12600000000000033 0
85394.3999999999942 446933 4.70899999999999963 2.11333307169690565
85394.3000000000029 446932 2.42799999999999994 0
85394.6000000000058 446934 5.43499999999999961 0
85394.5 446933 5.21499999999999986 0.234961186116045717
85394.3999999999942 446933 2.57500000000000018 0
85394.5 446933 5.05999999999999961 0.105866805975066994
85394.3000000000029 446932 2.60000000000000009 0
85394.8000000000029 446940 5.84700000000000042 0.0813439680793944797
85395 446941 4.84100000000000019 0
85394.8999999999942 446941 5.36300000000000043 0
85394.6000000000058 446938 7.14700000000000024 0.123315457470581646
85394.8000000000029 446939 6.37699999999999978 0.0224754867467512193
85394.8999999999942 446941 5.08999999999999986 0
85394.6999999999971 446939 6.66000000000000014 0.239070935224563408
85394.3999999999942 446935 6.36599999999999966 0.191014840762608884
85394.8999999999942 446940 5.63300000000000001 0
85394.3000000000029 446935 5.99600000000000044 0
85394.6000000000058 446937 7.49199999999999999 0
85394.5 446937 7.22299999999999986 0
85394.3999999999942 446936 6.59100000000000019 0
85394.1999999999971 446934 5.41899999999999959 0
85394.3000000000029 446935 5.78200000000000003 0
85394.1999999999971 446934 5.26199999999999957 0
85394 446932 2.59699999999999998 0
85394.8000000000029 446939 6.16899999999999959 0
85393.8999999999942 446932 2.48099999999999987 0
85394.3999999999942 446935 6.20699999999999985 0.0585609562428719768
85394.1999999999971 446934 5.64299999999999979 0.142563813911201848
85394.1000000000058 446933 4.7370000000000001 2.14302748302368595
85394.6000000000058 446937 7.34999999999999964 0
85394.6999999999971 446938 6.9139999999999997 0
85394.1000000000058 446933 2.57299999999999995 0
85394 446932 2.57699999999999996 0
85394 446933 2.58599999999999985 0
85394.1000000000058 446933 5.05999999999999961 2.46593260729470032
85393.8999999999942 446932 -0.154999999999999999 0
85394.6000000000058 446942 4.84299999999999997 0
85394.3999999999942 446940 6.13100000000000023 0.236524752316011361
85394.3999999999942 446939 6.36800000000000033 0
85394.3000000000029 446937 7.42199999999999971 0.0583843244456478672
85394.3999999999942 446939 6.62999999999999989 0.151624365139955974
85394.1000000000058 446936 6.78300000000000036 0.089913456136704803
85394.1000000000058 446937 7.01700000000000035 0
85394.1999999999971 446937 7.36800000000000033 0.0029960571491281303
85394.6000000000058 446941 5.12100000000000044 0
85394.1999999999971 446937 7.2110000000000003 0
85394 446936 6.38600000000000012 0
85394 446935 6.20999999999999996 0.14523970190949953
85394.3000000000029 446938 6.91699999999999982 0
85393.8999999999942 446935 5.81200000000000028 0
85393.8999999999942 446934 5.64299999999999979 0.205712608318132317
85394.3000000000029 446938 7.125 0.0425785790073415285
85393.6000000000058 446933 2.58199999999999985 0
85394.5 446940 5.61000000000000032 0
85393.8000000000029 446933 5.06299999999999972 2.47059071382283912
85394.6000000000058 446941 5.33499999999999996 0.113688514396981466
85393.8000000000029 446934 5.25699999999999967 0
85393.8999999999942 446934 5.40899999999999981 0.0107994831691609408
85393.8000000000029 446933 4.86300000000000043 2.27064586155472536
85394.1000000000058 446936 6.59299999999999997 0
85393.6999999999971 446933 2.6160000000000001 0
85393.5 446932 -0.0299999999999999989 0
85393.6000000000058 446932 2.44099999999999984 0
85393.6000000000058 446932 2.59299999999999997 0
85393.6999999999971 446933 2.58700000000000019 0
85394.5 446940 5.83199999999999985 0.00649460375176846849
85394 446935 5.99199999999999999 0
85394.3000000000029 446942 4.8490000000000002 0
85394.3000000000029 446941 5.10500000000000043 0
85394.1000000000058 446940 6.06400000000000006 0.118060398802458125
85394.1999999999971 446940 5.84100000000000019 0
85394 446939 6.61099999999999977 0.0526418790396775624
85393.8000000000029 446936 7.48599999999999977 0.0709934945831319913
85393.8999999999942 446937 7.41000000000000014 0.0406152085971789312
85393.6999999999971 446936 6.60599999999999987 0
85393.8000000000029 446937 7.42999999999999972 0.0591485714350270322
85393.8999999999942 446938 7.40800000000000036 0.196886953903723377
85394 446938 6.90599999999999969 0
85394.1000000000058 446939 6.35899999999999999 0
85394.1999999999971 446941 5.70600000000000041 0.341949883447586811
85393.3999999999942 446933 4.8490000000000002 2.258723014362221
85394 446938 7.16699999999999982 0.0155192340656516246
85393.3000000000029 446933 2.52800000000000002 0
85393.8000000000029 446936 6.83399999999999963 0
85393.5 446934 5.27500000000000036 0
85393.6000000000058 446935 5.85599999999999987 0
85393.1999999999971 446932 -0.269000000000000017 0
85393.3000000000029 446932 2.60899999999999999 0
85394.1999999999971 446941 5.33000000000000007 0.0265799617499565925
85393.6999999999971 446935 6.2110000000000003 0.209206183309334243
85393.6999999999971 446936 6.40700000000000003 0
85393.3999999999942 446934 2.5 0
85393.8999999999942 446937 7.42100000000000026 0.0516035590216343543
85393.3000000000029 446933 2.55100000000000016 0
85393.6000000000058 446935 6.00499999999999989 0.0586655944234174762
85393.5 446934 5.05999999999999961 0
85393.1999999999971 446932 2.48499999999999988 0
85393.6000000000058 446935 5.62300000000000022 0
85393.5 446934 5.45300000000000029 0.131649080765152471
85393.8000000000029 446941 5.59299999999999997 0.164147000397677351
85393.6999999999971 446940 6.09100000000000019 0.057672910318446409
85393.5 446938 7.40000000000000036 0.107130293876679314
85393.8000000000029 446941 5.32099999999999973 0
85393.6000000000058 446939 6.89400000000000013 0.206950253886003799
85393.3999999999942 446936 7.3879999999999999 0
85393.5 446937 7.39200000000000035 0.0168524470661551885
85393.8000000000029 446940 5.82099999999999973 0
85393.3000000000029 446935 6.0129999999999999 0.128478085435806411
85393.6000000000058 446938 7.14299999999999979 0
85393.1999999999971 446935 5.64100000000000001 0
85393.1000000000058 446934 5.29199999999999982 0.0818597736781204316
85393.3000000000029 446936 7.40500000000000025 0
85393.6999999999971 446939 6.57899999999999974 0
85393.1999999999971 446935 5.8490000000000002 0.0129219036164088374
85393 446934 4.89499999999999957 0
85393.8999999999942 446942 5.06799999999999962 0
85393.1000000000058 446934 5.07200000000000006 0
85392.8999999999942 446932 2.4910000000000001 0
85393.8999999999942 446942 4.81899999999999995 0
85393.6999999999971 446939 6.35099999999999998 0
85393.5 446937 7.4009999999999998 0.0258429155974161835
85393.1000000000058 446934 5.44899999999999984 0.212618112950193588
85393.3000000000029 446935 7.45600000000000041 1.33044235688876267
85393.3999999999942 446936 7.39900000000000002 0
85393 446934 2.39999999999999991 0
85393.3999999999942 446937 7.40000000000000036 0.0233985185299791371
85393.5 446942 5.08199999999999985 0
85393.5 446942 4.82800000000000029 0
85393.1000000000058 446938 7.41600000000000037 0.0375027088639040065
85393.3000000000029 446940 6.10599999999999987 0
85393.1999999999971 446939 6.62000000000000011 0
85393.3000000000029 446940 5.82399999999999984 0
85393 446937 7.40899999999999981 0.0265049371418356362
85393.1999999999971 446938 7.08900000000000041 0
85393.3999999999942 446941 5.59700000000000042 0.0844778429311407175
85392.8999999999942 446936 7.39400000000000013 0
85393.1000000000058 446938 7.39599999999999991 0.0207284796352910881
85392.8000000000029 446935 5.64499999999999957 0
85392.6999999999971 446934 5.29000000000000004 0
85393 446937 7.39100000000000001 0.0085245283462814913
85392.6000000000058 446934 4.86300000000000043 0
85392.6999999999971 446935 5.43299999999999983 0
85393.3000000000029 446940 6.37000000000000011 0.208626439329061192
85393.1999999999971 446939 6.88900000000000023 0.119709728260771142
85392.5 446934 -0.200000000000000011 0
85392.8000000000029 446935 5.82599999999999962 0.0780337900525965578
85392.8999999999942 446936 7.43200000000000038 0.00375959499835413309
85393.3999999999942 446941 5.32200000000000006 0
85392.8000000000029 446935 6.01700000000000035 0.23710922188020947
85392.8999999999942 446936 7.40200000000000014 0
85393 446937 7.38699999999999957 0.00452888194683939271
85392.6000000000058 446934 2.40200000000000014 0
85392.6999999999971 446934 5.07899999999999974 0
85392.6000000000058 446934 0.302999999999999992 0
85392.8999999999942 446941 5.56500000000000039 0
85393 446941 5.35200000000000031 0
85393 446942 5.08300000000000018 0
85392.8000000000029 446939 6.66600000000000037 0
85392.8000000000029 446939 6.89200000000000035 0.0391788942569057802
85392.8000000000029 446940 6.34600000000000009 0.0846886538202103745
85392.6999999999971 446939 7.13600000000000012 0.223062748446733322
85393.1000000000058 446942 4.83499999999999996 0
85392.8999999999942 446940 6.11300000000000043 0
85392.5 446937 7.39599999999999991 0.00613426790422946788
85392.3999999999942 446936 7.43799999999999972 0.00235034473470859505
85392.6999999999971 446938 7.42100000000000026 0
85392.1999999999971 446934 5.25100000000000033 0
85392.6000000000058 446937 7.38499999999999979 0
85392.1000000000058 446934 2.40899999999999981 0
85392.3999999999942 446936 6.06200000000000028 0
85392.1000000000058 446935 0.32400000000000001 0
85392.6000000000058 446937 7.38600000000000012 0
85392.5 446936 7.37800000000000011 0
85392.1999999999971 446934 5.08499999999999996 0
85392.1999999999971 446934 4.82000000000000028 0
85392.3000000000029 446935 5.43900000000000006 0
85392.8999999999942 446941 5.82899999999999974 0.175287598836230435
85392.5 446936 7.39900000000000002 0
85392.3000000000029 446935 5.66500000000000004 0.0493195966933224622
85392.6999999999971 446938 7.40899999999999981 0
85392.3999999999942 446935 5.83100000000000041 0.166498523201886933
85392.6999999999971 446942 4.83499999999999996 0
85392.6000000000058 446942 5.12399999999999967 0
85392.3000000000029 446939 7.15899999999999981 0.159306143671480882
85392.3999999999942 446940 6.37399999999999967 0.0251256063145694555
85392.1999999999971 446938 7.38900000000000023 0
85392.1000000000058 446937 7.38900000000000023 0
85392.5 446941 5.57899999999999974 0
85392.6000000000058 446942 5.33999999999999986 0
85392.3999999999942 446940 6.66600000000000037 0.270029352671895428
85392.1999999999971 446937 7.38600000000000012 0
85392.1000000000058 446936 7.38999999999999968 0
85392 446936 7.44200000000000017 0.000323122449085325094
85392.3000000000029 446938 7.41800000000000015 0
85392.1999999999971 446938 7.39200000000000035 0
85392.1000000000058 446937 7.39100000000000001 0
85391.6999999999971 446934 2.39800000000000013 0
85391.8999999999942 446935 5.64900000000000002 0.120294360915774903
85391.8000000000029 446934 4.76999999999999957 0
85392.5 446941 5.85299999999999976 0.112364894515059391
85392 446936 5.84100000000000019 0
85391.8999999999942 446935 5.46699999999999964 0
85392.5 446940 6.08000000000000007 0
85392 446936 6.02899999999999991 0
85392.3999999999942 446939 6.90000000000000036 0
85391.8000000000029 446934 5.10400000000000009 0
85391.8000000000029 446935 5.25100000000000033 0
85392.1000000000058 446941 5.56899999999999995 0
85392 446940 6.5990000000000002 0.130788716493023899
85391.8999999999942 446939 7.125 0.0477429856122010901
85392 446941 6.07599999999999962 0.195588839636697209
85392 446940 6.38100000000000023 0
85391.8000000000029 446938 7.38100000000000023 0.0249725584935994761
85391.8000000000029 446937 7.38900000000000023 0
85391.8999999999942 446939 6.87300000000000022 0
85392.1000000000058 446941 5.83000000000000007 0.0100275625790695305
85391.6000000000058 446936 6.02400000000000002 0
85392.1999999999971 446943 4.87899999999999956 0
85391.6999999999971 446937 7.39499999999999957 0
85391.5 446936 5.85799999999999965 0
85391.5 446935 5.64299999999999979 0.199597681768589719
85391.8999999999942 446938 7.37600000000000033 0.0214233098725386886
85391.3000000000029 446934 4.87699999999999978 0
85391.6999999999971 446937 7.38999999999999968 0
85391.3999999999942 446935 5.28399999999999981 0
85391.5 446935 5.48399999999999999 0.0671736311950593273
85391.6000000000058 446936 7.39100000000000001 1.1217256440610246
85391.3000000000029 446934 2.39599999999999991 0
85391.6000000000058 446936 7.4269999999999996 1.15169691764709192
85391.8000000000029 446938 7.41600000000000037 0.0599354916661032078
85392.1999999999971 446942 5.30400000000000027 0.0930809891554027213
85392.1999999999971 446942 5.10200000000000031 0
85391.3999999999942 446935 5.0860000000000003 0
85391.8000000000029 446943 4.84199999999999964 0
85391.6999999999971 446942 5.56700000000000017 0.209845696938644771
85391.8000000000029 446942 5.29600000000000026 0.00331663333273703783
85391.6999999999971 446941 6.0730000000000004 0.130787478968169946
85391.6000000000058 446940 6.58100000000000041 0.0326449418266455543
85391.8000000000029 446942 5.10799999999999965 0
85391.3999999999942 446938 7.38499999999999979 0.0231429849767225623
85391.3000000000029 446937 7.38100000000000023 0
85391.5 446940 6.87800000000000011 0.260980503414733389
85391.3999999999942 446938 7.4740000000000002 0.112046117359471009
85391.6000000000058 446940 6.36899999999999977 0
85391.3000000000029 446937 7.39799999999999969 0
85391.5 446939 7.10200000000000031 0
85391.3999999999942 446938 7.3879999999999999 0.0261397197772717874
85391.1000000000058 446935 5.47700000000000031 0.145644096350991958
85391.5 446939 7.36500000000000021 0.165986767699601329
85391 446934 4.93200000000000038 0
85391 446935 5.10500000000000043 0
85391.1999999999971 446936 7.40299999999999958 1.21598521064588683
85391.1000000000058 446936 5.65800000000000036 0
85390.8999999999942 446935 2.39500000000000002 0
85391 446935 5.28500000000000014 0.00681092255425478667
85391.1999999999971 446936 6.04300000000000015 0.083737097397603627
85391.3000000000029 446937 7.39400000000000013 0
85391.6999999999971 446941 5.80799999999999983 0
85391.1999999999971 446936 5.86800000000000033 0
85391.3999999999942 446942 5.55299999999999994 0.144990172517039689
85391.3999999999942 446942 5.31700000000000017 0
85391.3999999999942 446941 5.84100000000000019 0
85391.3000000000029 446941 6.34400000000000031 0.275031316307361773
85391.1000000000058 446939 7.34799999999999986 0.0686817045171786433
85391 446937 7.44599999999999973 0.0337225569103459244
85391.1999999999971 446940 6.82200000000000006 0.151727435398001459
85390.8999999999942 446937 7.38100000000000023 0
85391.1999999999971 446940 6.60899999999999999 0
85391 446937 7.40399999999999991 0
85391.3000000000029 446941 6.03000000000000025 0.0116759178536227654
85391.1000000000058 446938 7.47599999999999998 0.109613049497669271
85390.8000000000029 446936 5.6769999999999996 0
85390.8000000000029 446936 5.89700000000000024 0.0464560743845767177
85390.6999999999971 446935 5.11300000000000043 0
85391.1999999999971 446939 7.14200000000000035 0
85391.1000000000058 446938 7.29600000000000026 0
85390.6999999999971 446935 5.29300000000000015 0.0766991090048956964
85390.8000000000029 446936 6.07399999999999984 0.193814836156817688
85390.6000000000058 446935 4.89400000000000013 0
85390.1999999999971 446931 1.66500000000000004 0
85390.8999999999942 446936 7.39700000000000024 1.27419185492131537
85391 446938 7.09999999999999964 0
85390.6999999999971 446935 5.50399999999999956 0.252431654124002425
85390.3000000000029 446932 1.7669999999999999 0
85390.6000000000058 446935 2.41800000000000015 0
85390.1999999999971 446931 1.4870000000000001 0
85390.3000000000029 446932 1.86899999999999999 0
85390.3000000000029 446932 1.96900000000000008 0
85390.1999999999971 446932 0.233000000000000013 0
85391.5 446943 5.07099999999999973 0
85390.1999999999971 446931 0.101999999999999993 0
85391 446941 6.22599999999999998 0.120631878033232928
85391.1999999999971 446942 5.2759999999999998 0
85390.8999999999942 446940 6.78099999999999969 0.0551525070579308718
85391 446940 6.54999999999999982 0
85390.8999999999942 446939 7.3230000000000004 0.00619043384114363084
85391.1999999999971 446943 4.97900000000000009 0
85390.6999999999971 446937 6.71799999999999997 0
85391.1000000000058 446942 5.48299999999999965 0.0216409589169304535
85390.5 446936 5.90000000000000036 0.112155537049452414
85390.6000000000058 446937 6.12000000000000011 0
85390.3999999999942 446935 5.34799999999999986 0
85390.5 446936 5.75699999999999967 0
85390.3999999999942 446935 5.15500000000000025 0
85390.8000000000029 446938 7.28399999999999981 0
85391 446941 6.04100000000000037 0
85390.5 446936 5.53200000000000003 0
85390.3000000000029 446935 2.41000000000000014 0
85390.8999999999942 446939 7.03300000000000036 0
85390.6000000000058 446937 6.26199999999999957 0
85390.3000000000029 446935 0.00800000000000000017 0
85390.6999999999971 446938 6.88300000000000001 0
85390 446932 1.78299999999999992 0
85389.8999999999942 446931 1.58800000000000008 0
85389.8999999999942 446931 1.47999999999999998 0
85390.6000000000058 446937 7.47799999999999976 0.0596644688406952062
85390 446933 1.99399999999999999 0
85389.8000000000029 446931 -0.159000000000000002 0
85389.8999999999942 446932 1.68799999999999994 0
85391.1000000000058 446942 5.75800000000000001 0.251994189308653582
85390.3000000000029 446935 4.94000000000000039 0
85390.6000000000058 446937 6.48800000000000043 0
85389.8000000000029 446931 1.38700000000000001 0
85389.8000000000029 446931 -0.375 0
85390.8000000000029 446938 7.08000000000000007 0
85389.8000000000029 446930 1.27800000000000002 0
85390.8000000000029 446939 7.49099999999999966 0.126332217052342183
85390 446932 1.871 0
85390.8000000000029 446943 4.94200000000000017 0
85390.8000000000029 446943 5.23299999999999965 0
85390.6999999999971 446942 5.71199999999999974 0.127177248400471982
85390.6999999999971 446941 6.00800000000000001 0
85390.8000000000029 446942 5.46600000000000019 0
85390.6999999999971 446941 6.23200000000000021 0.0609439208150022102
85390.3000000000029 446937 6.51100000000000012 0.151265471379918554
85390.6000000000058 446940 6.9269999999999996 0.119732701825764759
85390.5 446939 7.29800000000000004 0
85390.3999999999942 446938 6.91000000000000014 0
85390.1000000000058 446936 5.38499999999999979 0
85390.1999999999971 446936 5.91899999999999959 0.191175565730585334
85390.3000000000029 446937 6.33100000000000041 0.00136745361159961885
85390.5 446939 7.53300000000000036 0.0994534805940817113
85390.6000000000058 446940 6.76400000000000023 0
85389.8999999999942 446935 0.466000000000000025 0
85390 446935 5.16899999999999959 0
85390.3999999999942 446938 7.08199999999999985 0.0941505797494657792
85390.1000000000058 446936 5.52500000000000036 0
85390 446935 4.98899999999999988 0
85390.6000000000058 446940 6.99000000000000021 0.172503417492883171
85389.6999999999971 446932 1.8899999999999999 0
85390.1999999999971 446937 6.11699999999999999 0
85389.6000000000058 446931 1.58800000000000008 0
85390 446935 4.79499999999999993 0
85389.6000000000058 446932 1.67599999999999993 0
85389.3999999999942 446930 1.19100000000000006 0
85390.3999999999942 446939 7.33100000000000041 0
85390 446935 2.42700000000000005 0
85389.3000000000029 446930 0.992999999999999994 0
85389.3999999999942 446930 1.08699999999999997 0
85390.1000000000058 446936 5.76799999999999979 0.0865300092900459505
85390.3000000000029 446938 6.73099999999999987 0
85389.3000000000029 446930 -0.442000000000000004 0
85389.5 446931 1.49700000000000011 0
85389.3999999999942 446930 1.28299999999999992 0
85389.3000000000029 446929 -0.309999999999999998 0
85389.5 446931 1.38900000000000001 0
85389.6999999999971 446933 2.00800000000000001 0
85389.6000000000058 446932 1.79200000000000004 0
85390.3999999999942 446942 5.45800000000000018 0
85390.3000000000029 446942 6.00199999999999978 0.283810072620510667
85390.3000000000029 446941 6.19599999999999973 0
85390.3999999999942 446942 5.7110000000000003 0.0616257543962847529
85390.1000000000058 446939 7.3360000000000003 0
85390.1999999999971 446941 6.49800000000000022 0.175901908434580395
85390.1000000000058 446939 7.29300000000000015 0
85390 446938 7.09700000000000042 0.19092869433519119
85390.3999999999942 446943 5.23099999999999987 0
85389.8999999999942 446938 6.51799999999999979 0
85389.8000000000029 446937 6.15500000000000025 0
85389.6999999999971 446936 5.37600000000000033 0
85389.6999999999971 446936 5.54499999999999993 0
85389.8999999999942 446938 6.74199999999999999 0
85389.6000000000058 446935 4.77400000000000002 0
85389.8999999999942 446937 6.35099999999999998 0.102591911156473273
85390.1999999999971 446940 7.00100000000000033 0.0954285629752891496
85389.6000000000058 446935 4.99699999999999989 0
85389.6999999999971 446935 5.16000000000000014 0
85389.6000000000058 446935 2.43400000000000016 0
85389.3000000000029 446933 1.99500000000000011 0
85389.8000000000029 446936 5.76400000000000023 0.1465639667714492
85390.1999999999971 446940 6.77400000000000002 0
85390.1000000000058 446939 7.53599999999999959 0.0201966756540035118
85389.1000000000058 446931 1.49500000000000011 0
85389.3000000000029 446933 1.89500000000000002 0
85389 446930 1.20100000000000007 0
85389.8000000000029 446937 5.97599999999999998 0
85389.1000000000058 446931 1.40999999999999992 0
85389.1999999999971 446932 1.77600000000000002 0
85388.8999999999942 446930 -0.235999999999999988 0
85389.1999999999971 446932 1.59400000000000008 0
85388.8999999999942 446930 1.0069999999999999 0
85390 446938 6.90200000000000014 0.0285183547692653798
85389.1999999999971 446932 1.68300000000000005 0
85389.1000000000058 446931 1.30000000000000004 0
85388.8999999999942 446929 0.71599999999999997 0
85390.5 446943 4.95500000000000007 0
85389 446930 1.09600000000000009 0
85390 446943 5.22299999999999986 0
85389.8999999999942 446941 6.17400000000000038 0
85390.1000000000058 446943 4.94700000000000006 0
85389.8000000000029 446940 6.70800000000000018 0
85389.6000000000058 446939 7.14400000000000013 0
85389.8999999999942 446942 5.94099999999999984 0.146428410039779883
85389.5 446938 6.53599999999999959 0
85389.8000000000029 446941 6.48800000000000043 0.0812402995024818081
85389.5 446937 6.32099999999999973 0.172040597242021698
85389.3999999999942 446936 8.05799999999999983 2.14158634791819447
85389.3999999999942 446937 7.93499999999999961 1.53469034341316823
85389.6999999999971 446939 7.53500000000000014 0.0863726818721218537
85390 446942 5.70399999999999974 0
85389.5 446938 6.72700000000000031 0
85389.1999999999971 446935 6.56899999999999995 1.45582464830627112
85389.3000000000029 446935 7.48800000000000043 2.20056091678377674
85389.1999999999971 446935 5.10899999999999999 0.23933191489458247
85389.1999999999971 446935 6.04100000000000037 1.01588755020383514
85389.3000000000029 446935 5.52299999999999969 0.563295011924095257
85389.1999999999971 446935 4.78500000000000014 0
85389.1000000000058 446935 1.02600000000000002 0
85390 446943 5.45099999999999962 0
85389.6999999999971 446940 7.27299999999999969 0.215412439253019866
85389.3999999999942 446936 7.91800000000000015 2.02498405286232064
85389.3999999999942 446937 6.16600000000000037 0.06355010479055824
85388.8999999999942 446933 1.99199999999999999 0
85389.6999999999971 446939 7.32399999999999984 0
85388.8999999999942 446933 1.90999999999999992 0
85388.6999999999971 446932 1.49199999999999999 0
85388.8000000000029 446932 1.70900000000000007 0
85389.1999999999971 446935 3.43900000000000006 0
85388.8000000000029 446933 1.80200000000000005 0
85388.6999999999971 446931 1.30299999999999994 0
85388.6999999999971 446931 1.39599999999999991 0
85388.6000000000058 446930 1.1140000000000001 0
85388.5 446930 1.91900000000000004 0
85388.5 446930 1.01899999999999991 0
85388.5 446929 0.968999999999999972 0
85388.5 446930 -0.0759999999999999981 0
85388.6000000000058 446931 1.20700000000000007 0
85388.5 446930 0.888000000000000012 0
85389.3000000000029 446936 7.89200000000000035 2.02427706112136718
85388.8000000000029 446932 1.59299999999999997 0
85388.5 446929 1.75499999999999989 0
85389.8000000000029 446940 6.98500000000000032 0
85389.1000000000058 446935 2.17499999999999982 0
85389.6000000000058 446938 6.91800000000000015 0.131657707894020454
85389.6000000000058 446943 5.40899999999999981 0.13771120227888739
85389.5 446942 5.69599999999999973 0
85389.3999999999942 446941 6.67999999999999972 0.155783608909304122
85389.6000000000058 446943 5.20099999999999962 0
85389.3999999999942 446940 6.99199999999999999 0
85389.3000000000029 446939 7.55999999999999961 0.110321853027228342
85389.5 446942 5.91300000000000026 0.0366891351332236798
85389.1999999999971 446938 6.94299999999999962 0.234007568722125608
85389.1999999999971 446939 7.15800000000000036 0
85389 446936 7.90299999999999958 2.10619419486534776
85389 446936 7.92999999999999972 2.12864800288568867
85389.1000000000058 446938 6.34400000000000031 0
85389.1000000000058 446938 6.57599999999999962 0
85389.5 446941 6.20300000000000029 0
85388.8999999999942 446936 8.26200000000000045 2.42515767792907511
85389 446937 6.19200000000000017 0.16684183312062828
85389.1000000000058 446938 6.74600000000000044 0
85389.1999999999971 446939 7.35599999999999987 0
85389.6999999999971 446944 4.8879999999999999 0
85388.6999999999971 446935 2.23099999999999987 0
85388.8000000000029 446935 3.5169999999999999 0
85388.6999999999971 446935 1.43700000000000006 0
85389.3000000000029 446940 7.22200000000000042 0.0864072578144896575
85389.3999999999942 446941 6.45399999999999974 0
85388.8999999999942 446935 7.91600000000000037 0
85388.6999999999971 446935 1.52299999999999991 0
85388.3999999999942 446933 1.80299999999999994 0
85388.3000000000029 446931 1.40700000000000003 0
85388.3999999999942 446932 1.71199999999999997 0
85388.8000000000029 446935 4.73099999999999987 0
85388.1999999999971 446930 1.12599999999999989 0
85388.1999999999971 446931 1.23100000000000009 0
85388.1999999999971 446930 2.15200000000000014 0
85388.1000000000058 446930 1.07699999999999996 0
85388.8000000000029 446935 5.32200000000000006 0
85388.3000000000029 446931 1.31099999999999994 0
85388.3000000000029 446932 1.50499999999999989 0
85388.1000000000058 446930 1.75800000000000001 0
85388.3999999999942 446932 1.61099999999999999 0
85388.1000000000058 446930 0.0650000000000000022 0
85388.5 446933 1.90500000000000003 0
85388.1000000000058 446930 0.881000000000000005 0
85388.8000000000029 446935 6.82399999999999984 0
85389.1000000000058 446943 5.64900000000000002 0.230896264193243161
85389 446941 6.43299999999999983 0
85389.1999999999971 446943 5.16300000000000026 0
85388.8000000000029 446939 7.47100000000000009 0.0200088351117374795
85389.1999999999971 446944 4.88499999999999979 0
85388.8999999999942 446941 6.7370000000000001 0.095673141431172698
85388.8000000000029 446939 7.46600000000000019 0.0150088566560151789
85389 446942 6.18200000000000038 0.154160067081878127
85388.6000000000058 446938 7.45800000000000018 0.00779410732764184919
85388.5 446937 5.97700000000000031 0.0901112146648295753
85388.6000000000058 446937 6.17600000000000016 0.235211026464788475
85388.8999999999942 446940 7.22299999999999986 0.000959778098060004125
85389 446942 5.93599999999999994 0
85388.8999999999942 446940 6.92300000000000004 0
85388.3000000000029 446935 4.73099999999999987 0
85388.3000000000029 446936 1.8620000000000001 0
85388.5 446937 5.57000000000000028 0
85388.6999999999971 446939 7.46699999999999964 0.0157461720663560449
85388.3000000000029 446936 5.05900000000000016 0
85388.5 446937 5.78099999999999969 0
85388.6999999999971 446938 7.45399999999999974 0.00405680484390912467
