ply
format ascii 1.0
element vertex 342
property double x
property double y
property double z
end_header
85443.3999999999942 446900 7.63600000000000012
85448.5 446895 5.04800000000000004
85448.5 446895 4.86500000000000021
85448.1000000000058 446895 5.04000000000000004
85448.1000000000058 446895 4.73200000000000021
85448.3999999999942 446894 3.54000000000000004
85447.8999999999942 446894 3.45800000000000018
85447.6000000000058 446894 3.41400000000000015
85447.5 446894 3.36399999999999988
85448.8000000000029 446894 5.05100000000000016
85448.8000000000029 446894 4.7759999999999998
85447.6999999999971 446895 4.6639999999999997
85447.6999999999971 446895 4.98599999999999977
85447.3999999999942 446895 4.98599999999999977
85447.3999999999942 446895 4.6639999999999997
85447.1000000000058 446895 4.93400000000000016
85447 446895 4.68200000000000038
85446.6999999999971 446895 4.95000000000000018
85446.6999999999971 446895 4.69000000000000039
85446.3999999999942 446895 4.70899999999999963
85446.3999999999942 446895 4.90500000000000025
85446 446895 4.875
85446 446895 4.70000000000000018
85445.6000000000058 446895 4.89599999999999991
85449.5 446896 7.84499999999999975
85449.5 446895 7.86000000000000032
85449.5 446895 7.23099999999999987
85450 446896 7.87300000000000022
85440.5 446897 7.89200000000000035
85440.3999999999942 446896 7.27299999999999969
85440.3999999999942 446896 7.88999999999999968
85440.5 446897 7.89499999999999957
85440.5 446897 7.88400000000000034
85432.8999999999942 446896 3.51600000000000001
85432.3999999999942 446896 3.51399999999999979
85432 446896 3.50300000000000011
85431.6999999999971 446896 3.43999999999999995
85431.3000000000029 446896 3.4910000000000001
85439.3000000000029 446896 4.86800000000000033
85439.3000000000029 446896 5.07599999999999962
85438.8999999999942 446896 5.03800000000000026
85438.8999999999942 446896 4.83699999999999974
85438.6000000000058 446896 4.70300000000000029
85438.6000000000058 446896 5.02899999999999991
85438.1999999999971 446896 4.66800000000000015
85438.3000000000029 446896 4.95399999999999974
85437.8000000000029 446896 4.69700000000000006
85437.8000000000029 446896 5.09999999999999964
85437.3000000000029 446896 4.99000000000000021
85436.8000000000029 446896 4.82099999999999973
85436.3999999999942 446896 4.76100000000000012
85436 446896 4.68599999999999994
85436.1000000000058 446896 5.10799999999999965
85435.6999999999971 446896 5.04399999999999959
85435.6999999999971 446896 4.71799999999999997
85435.3999999999942 446896 4.98899999999999988
85434.8999999999942 446896 3.48099999999999987
85435 446896 3.47299999999999986
85435 446896 3.45800000000000018
85435 446896 4.84299999999999997
85434.5 446896 3.49800000000000022
85434.6000000000058 446896 4.71999999999999975
85434.1999999999971 446896 4.69599999999999973
85434.1000000000058 446896 3.13200000000000012
85433.8000000000029 446896 4.69500000000000028
85430.8000000000029 446897 5.69899999999999984
85430.8000000000029 446897 7.81400000000000006
85430.8999999999942 446898 7.90500000000000025
85430.8999999999942 446898 7.81500000000000039
85430.6000000000058 446898 7.8230000000000004
85430.5 446897 7.74099999999999966
85430.3999999999942 446897 5.74500000000000011
85430.5 446898 7.88600000000000012
85440.1000000000058 446896 7.89400000000000013
85440.1000000000058 446897 7.9009999999999998
85440.1000000000058 446897 7.89700000000000024
85440.1999999999971 446897 7.90200000000000014
85440 446896 6.88300000000000001
85431.3999999999942 446903 5.97200000000000042
85431.3000000000029 446902 6.48599999999999977
85431.1000000000058 446901 7.21699999999999964
85431 446900 6.61699999999999999
85431.1999999999971 446901 7.25699999999999967
85431.3999999999942 446904 5.22200000000000042
85431.1000000000058 446900 6.83399999999999963
85418.6000000000058 446912 3.45199999999999996
85418.3999999999942 446912 3.52700000000000014
85418.1000000000058 446912 3.50599999999999978
85417.3999999999942 446913 5.01100000000000012
85417.3999999999942 446913 4.74399999999999977
85417.3000000000029 446913 3.62000000000000011
85417.3000000000029 446912 3.746
85417.1000000000058 446913 5.02099999999999991
85417 446913 3.56199999999999983
85417 446913 4.6769999999999996
85417 446913 3.40799999999999992
85420.6999999999971 446911 3.56499999999999995
85420.3999999999942 446911 3.6080000000000001
85420.3999999999942 446911 3.77800000000000002
85420.1999999999971 446912 5.15299999999999958
85420.1999999999971 446912 4.73399999999999999
85420.1999999999971 446912 4.91500000000000004
85419.8999999999942 446912 4.71999999999999975
85419.8999999999942 446912 4.94700000000000006
85419.5 446912 4.91899999999999959
85419 446912 3.43100000000000005
85419.1000000000058 446912 4.85299999999999976
85417.6000000000058 446913 4.66300000000000026
85417.6999999999971 446913 5.05499999999999972
85421.8999999999942 446912 6.78699999999999992
85421.8999999999942 446912 7.48399999999999999
85421.8999999999942 446912 6.15000000000000036
85421.6000000000058 446912 7.85500000000000043
85421.6999999999971 446912 7.97700000000000031
85421.6000000000058 446912 7.33300000000000018
85421.6000000000058 446912 6.0990000000000002
85421.3000000000029 446912 7.73200000000000021
85421.3999999999942 446912 7.88600000000000012
85421.3000000000029 446912 5.83000000000000007
85413.1999999999971 446917 7.85700000000000021
85413.1000000000058 446916 7.89499999999999957
85413.1000000000058 446916 7.83800000000000008
85413 446916 6.95199999999999996
85412.8000000000029 446916 7.92999999999999972
85422 446913 7.86099999999999977
85422 446912 7.86500000000000021
85421.6999999999971 446913 7.87300000000000022
85421.3999999999942 446913 7.86500000000000021
85407.5 446917 4.72499999999999964
85407.3999999999942 446917 3.43500000000000005
85407.5 446917 3.20599999999999996
85407.5 446917 4.93799999999999972
85407.3999999999942 446917 3.57500000000000018
85403.8000000000029 446918 3.65899999999999981
85403.8000000000029 446918 3.83300000000000018
85405.5 446918 5.11000000000000032
85405.3999999999942 446918 4.94899999999999984
85405.3999999999942 446918 4.73599999999999977
85405.1000000000058 446918 4.94000000000000039
85405.1000000000058 446918 4.72499999999999964
85404.8000000000029 446918 4.96900000000000031
85404.6999999999971 446918 3.56599999999999984
85404.8000000000029 446918 4.70899999999999963
85404.5 446918 4.67100000000000026
85404.3999999999942 446918 3.27499999999999991
85404.1999999999971 446918 4.10099999999999998
85404.3000000000029 446918 4.66600000000000037
85407.8000000000029 446917 4.90299999999999958
85407.1999999999971 446917 4.95000000000000018
85407.1999999999971 446917 4.72200000000000042
85407.1000000000058 446917 3.72299999999999986
85406.6999999999971 446917 4.71600000000000019
85412.8000000000029 446917 7.85299999999999976
85412.6999999999971 446916 7.92900000000000027
85412.6999999999971 446916 7.94700000000000006
85412.5 446916 7.84700000000000042
85412.5 446916 7.88199999999999967
85412.5 446916 7.91500000000000004
85412.1999999999971 446916 7.86000000000000032
85403.6999999999971 446920 7.91300000000000026
85404.1000000000058 446919 7.88600000000000012
85404.1000000000058 446920 7.91899999999999959
85404 446919 5.58300000000000018
85404 446919 7.33800000000000008
85394.1000000000058 446933 5.03699999999999992
85394.3000000000029 446933 5.07399999999999984
85395.8999999999942 446932 5.03300000000000036
85396.3000000000029 446932 5.02500000000000036
85396.6000000000058 446932 5.08000000000000007
85396.8000000000029 446932 5.04199999999999982
85396.8999999999942 446932 4.98599999999999977
85396.8000000000029 446932 4.73800000000000043
85396.8999999999942 446932 5.14400000000000013
85396.5 446932 4.99000000000000021
85396.3999999999942 446932 4.70999999999999996
85396 446932 4.98099999999999987
85395.8999999999942 446932 4.72499999999999964
85395.3999999999942 446932 4.7370000000000001
85394.3999999999942 446933 4.70899999999999963
85394.1000000000058 446933 4.7370000000000001
85394.1000000000058 446933 5.05999999999999961
85393.5 446933 5.05400000000000027
85393.8000000000029 446933 4.97100000000000009
85394.6000000000058 446932 3.50599999999999978
85393.8000000000029 446933 5.06299999999999972
85393.8000000000029 446933 4.86300000000000043
85393.3999999999942 446933 4.8490000000000002
85397.5 446934 7.43900000000000006
85397.8000000000029 446934 7.47499999999999964
85397.5 446934 7.48599999999999977
85397.5 446934 7.45600000000000041
85397.6000000000058 446934 7.39700000000000024
85398.3000000000029 446932 7.94399999999999995
85398.3000000000029 446932 7.9269999999999996
85398.3999999999942 446933 6.96199999999999974
85398.6000000000058 446933 7.64799999999999969
85398.3000000000029 446932 6.34700000000000042
85397.8999999999942 446933 6.92799999999999994
85397.8000000000029 446933 7.58199999999999985
85398.1000000000058 446933 7.72100000000000009
85398.1000000000058 446933 7.04399999999999959
85398.3000000000029 446933 7.6980000000000004
85398.1000000000058 446933 7.96600000000000019
85397.8000000000029 446933 7.88499999999999979
85390.6000000000058 446936 7.44599999999999973
85390.8999999999942 446936 7.42999999999999972
85391.1000000000058 446936 7.45999999999999996
85391.3999999999942 446936 7.45600000000000041
85391.3999999999942 446936 7.38600000000000012
85391.6000000000058 446936 7.39100000000000001
85391.6000000000058 446936 7.4269999999999996
85391.1999999999971 446936 7.40299999999999958
85390.8999999999942 446936 7.39700000000000024
85394.6000000000058 446935 7.47200000000000042
85394.8999999999942 446935 7.36000000000000032
85394.8999999999942 446935 7.42900000000000027
85394.8999999999942 446935 7.43200000000000038
85395.1999999999971 446935 7.41800000000000015
85395.1999999999971 446935 7.43200000000000038
85395.1999999999971 446935 7.41999999999999993
85395.3000000000029 446935 7.42100000000000026
85395 446935 7.49500000000000011
85395.1000000000058 446935 7.41199999999999992
85395 446935 7.41099999999999959
85394.6999999999971 446935 7.49500000000000011
85394.6999999999971 446935 7.5
85394.8000000000029 446935 7.48500000000000032
85389.1999999999971 446935 6.56899999999999995
85389.3000000000029 446935 7.48800000000000043
85389.1999999999971 446935 6.04100000000000037
85389.3000000000029 446935 5.52299999999999969
85393.1000000000058 446935 7.43700000000000028
85393.3000000000029 446935 7.47200000000000042
85393.3000000000029 446935 7.45600000000000041
85389.3000000000029 446936 7.94000000000000039
85389.3000000000029 446936 7.9009999999999998
85389.3000000000029 446936 8.3230000000000004
85389.3999999999942 446936 8.05799999999999983
85389.3999999999942 446936 7.91800000000000015
85389.3000000000029 446936 7.89200000000000035
85395.3999999999942 446934 7.43900000000000006
85395.8000000000029 446934 7.43900000000000006
85395.6999999999971 446934 7.4740000000000002
85395.3000000000029 446934 7.49199999999999999
85389.6999999999971 446936 6.49500000000000011
85389.6000000000058 446936 7.90200000000000014
85389.6000000000058 446936 7.29800000000000004
85392.8000000000029 446935 7.45399999999999974
85397.6000000000058 446932 6.6639999999999997
85397.6999999999971 446932 6.03000000000000025
85397.6000000000058 446932 7.32500000000000018
85397.6000000000058 446932 7.86300000000000043
85397.8000000000029 446932 7.91000000000000014
85397.8000000000029 446932 7.91099999999999959
85398.1000000000058 446932 7.90599999999999969
85398.1000000000058 446932 7.9740000000000002
85398 446932 7.62600000000000033
85398.1000000000058 446932 7.9870000000000001
85398 446932 6.08699999999999974
85397.6999999999971 446932 7.82800000000000029
85397.6999999999971 446932 6.39799999999999969
85397.6999999999971 446932 7.90000000000000036
85396.1000000000058 446934 7.41800000000000015
85396.3999999999942 446934 7.41600000000000037
85396.1999999999971 446934 7.48599999999999977
85396.1999999999971 446934 7.41999999999999993
85380.3000000000029 446939 8.02299999999999969
85380.5 446939 8.01099999999999923
85380.5 446939 6.2889999999999997
85380.5 446939 7.56500000000000039
85380.5 446940 6.92900000000000027
85380.5 446940 8.05300000000000082
85380.5 446940 7.63100000000000023
85380.6999999999971 446940 7.89499999999999957
85380.8000000000029 446940 6.41199999999999992
85380.8000000000029 446940 7.16500000000000004
85380.6000000000058 446940 8.0210000000000008
85380.6000000000058 446940 7.99699999999999989
85388.6000000000058 446936 6.33699999999999974
85388.8000000000029 446936 6.74000000000000021
85388.8000000000029 446936 7.42799999999999994
85388.8000000000029 446936 6.10299999999999976
85388.8000000000029 446936 7.8879999999999999
85389 446936 8.26800000000000068
85389 446936 7.95300000000000029
85389 446936 7.90700000000000003
85389.3000000000029 446937 7.36000000000000032
85389.3000000000029 446937 6.55499999999999972
85389.3999999999942 446937 7.93499999999999961
85389 446936 7.90299999999999958
85389 446936 7.92999999999999972
85388.8999999999942 446936 8.26200000000000045
85382.8000000000029 446939 7.53200000000000003
85388.3999999999942 446937 7.4009999999999998
85388.1000000000058 446937 7.48800000000000043
85387.6999999999971 446937 7.47499999999999964
85389 446937 7.06599999999999984
85389 446937 7.68799999999999972
85382.1999999999971 446941 7.37399999999999967
85382.1999999999971 446941 7.48399999999999999
85382.1000000000058 446941 7.54300000000000015
85383.3999999999942 446939 7.43100000000000005
85383.6000000000058 446939 7.45300000000000029
85383.8999999999942 446939 7.49800000000000022
85384.1000000000058 446939 7.51999999999999957
85384.1000000000058 446939 7.4610000000000003
85386 446938 7.4870000000000001
85386.3000000000029 446938 7.41300000000000026
85386.3000000000029 446938 7.49500000000000011
85386.3999999999942 446938 7.40800000000000036
85386.1000000000058 446938 7.4139999999999997
85384.1999999999971 446939 7.47799999999999976
85383.8999999999942 446939 7.44200000000000017
85383.8000000000029 446939 7.5129999999999999
85383.5 446939 7.51900000000000013
85383.1000000000058 446939 7.5129999999999999
85380 446940 7.26900000000000013
85380 446940 6.61399999999999988
85380 446940 7.89299999999999979
85380.1999999999971 446940 8.15300000000000047
85380.1999999999971 446940 8.00300000000000011
85380 446940 8.03100000000000058
85380.1000000000058 446940 8.00200000000000067
85380.3000000000029 446940 7.36000000000000032
85380.3000000000029 446940 6.6639999999999997
85381.5 446938 5.04699999999999971
85381.3000000000029 446938 4.96900000000000031
85380.8999999999942 446938 4.80900000000000016
85384.1000000000058 446937 5.00300000000000011
85384 446937 4.78399999999999981
85384 446937 4.98299999999999965
85381.6999999999971 446938 4.84299999999999997
85381.8999999999942 446938 4.85700000000000021
85381.8999999999942 446938 5.16699999999999982
85382.1999999999971 446938 5.11800000000000033
85383.3000000000029 446937 4.81899999999999995
85383.6000000000058 446937 4.8230000000000004
85383.6000000000058 446937 4.77700000000000014
85383.1999999999971 446937 4.72299999999999986
85382.1999999999971 446938 5.12300000000000022
85382.1999999999971 446938 4.95500000000000007
85381.8000000000029 446938 4.94399999999999995
