ply
format ascii 1.0
comment Created by CloudCompare v2.11.1 (Anoia)
comment Created 20/05/2021 13:14
obj_info Generated by CloudCompare!
element vertex 1430
property double x
property double y
property double z
property float scalar_Scan_Angle_Rank
property float scalar_Flightline_Edge
property float scalar_Number_of_Returns
property float scalar_Return_Number
property float scalar_Classification
end_header
85178.2 446504 17.366 -8 0 1 1 6 
85178 446503 17.486 -8 0 1 1 6 
85190.2 446514 5.259 -6 0 2 1 6 
85179 446504 17.317 -8 0 1 1 6 
85180 446505 17.266 -8 0 2 2 6 
85178.7 446504 17.334 -8 0 1 1 6 
85177.5 446503 17.852 -8 0 5 1 6 
85180.9 446505 19.844 -7 0 2 1 6 
85180.2 446505 18.752 -8 0 2 1 6 
85178.5 446504 17.346 -8 0 1 1 6 
85226.9 446541 17.433 0 0 1 1 6 
85225.8 446541 17.436 0 0 1 1 6 
85227.4 446542 17.812 0 0 1 1 6 
85225.6 446540 17.393 0 0 1 1 6 
85226.3 446541 17.428 0 0 1 1 6 
85224.5 446540 17.371 0 0 1 1 6 
85224.3 446539 17.374 0 0 1 1 6 
85224.8 446540 17.377 0 0 1 1 6 
85223.8 446539 17.351 0 0 1 1 6 
85226.6 446541 17.416 0 0 1 1 6 
85223.3 446539 17.352 0 0 1 1 6 
85226.1 446541 17.395 0 0 1 1 6 
85222 446538 17.331 -1 0 1 1 6 
85222.2 446538 17.334 0 0 1 1 6 
85221.5 446537 17.389 -1 0 1 1 6 
85223.5 446539 17.359 0 0 1 1 6 
85222.5 446538 17.342 0 0 1 1 6 
85224 446539 17.364 0 0 1 1 6 
85223 446539 17.343 0 0 1 1 6 
85221.2 446537 17.333 -1 0 1 1 6 
85221.7 446538 17.335 -1 0 1 1 6 
85220.1 446536 17.305 -1 0 1 1 6 
85220.4 446537 17.352 -1 0 2 2 6 
85219.4 446536 17.306 -1 0 3 3 6 
85225.3 446540 17.394 0 0 1 1 6 
85219.2 446535 19.889 -1 0 1 1 6 
85225.1 446540 17.387 0 0 1 1 6 
85221 446537 18.632 -1 0 2 1 6 
85220.7 446537 19.344 -1 0 1 1 6 
85218.5 446535 19.889 -1 0 2 1 6 
85218.2 446535 19.896 -1 0 1 1 6 
85217.9 446535 17.344 -1 0 1 1 6 
85219 446535 19.874 -1 0 1 1 6 
85219.7 446536 17.386 -1 0 1 1 6 
85217.3 446534 17.36 -1 0 1 1 6 
85217.6 446534 17.357 -1 0 1 1 6 
85216.8 446534 17.379 -1 0 1 1 6 
85216.3 446533 17.449 -1 0 1 1 6 
85217.1 446534 17.369 -1 0 1 1 6 
85216.1 446533 17.397 -2 0 1 1 6 
85220.9 446537 17.268 -1 0 2 2 6 
85215 446532 17.45 -2 0 1 1 6 
85219.5 446536 19.869 -1 0 3 1 6 
85216.5 446534 17.393 -1 0 1 1 6 
85214.8 446532 17.821 -2 0 1 1 6 
85227.1 446542 17.447 0 0 1 1 6 
85219.4 446536 17.917 -1 0 3 2 6 
85219.9 446536 17.374 -1 0 1 1 6 
85218.7 446535 19.886 -1 0 1 1 6 
85222.7 446538 17.339 0 0 1 1 6 
85220.5 446536 18.617 -1 0 2 1 6 
85215.3 446533 17.43 -2 0 1 1 6 
85215.8 446533 17.405 -2 0 1 1 6 
85215.5 446533 17.412 -2 0 1 1 6 
85203.9 446525 3.206 -3 0 3 2 6 
85204 446525 4.455 -3 0 3 1 6 
85203.2 446524 4.416 -4 0 1 1 6 
85204.3 446525 4.473 -3 0 3 1 6 
85202.4 446523 4.346 -4 0 1 1 6 
85201.6 446523 4.341 -4 0 1 1 6 
85201.9 446523 4.344 -4 0 1 1 6 
85202.9 446524 4.381 -4 0 1 1 6 
85203.4 446524 4.436 -3 0 1 1 6 
85199.2 446521 4.321 -4 0 1 1 6 
85198.7 446520 4.327 -4 0 1 1 6 
85202.6 446523 4.354 -4 0 1 1 6 
85198.1 446520 4.319 -4 0 1 1 6 
85200.3 446522 4.349 -4 0 1 1 6 
85197.8 446520 4.318 -4 0 1 1 6 
85199.4 446521 4.326 -4 0 1 1 6 
85197.3 446519 4.321 -4 0 1 1 6 
85197 446519 4.303 -5 0 1 1 6 
85200 446521 4.34 -4 0 1 1 6 
85200.8 446522 4.35 -4 0 1 1 6 
85201 446522 4.341 -4 0 1 1 6 
85195.7 446518 4.304 -5 0 1 1 6 
85197.6 446520 4.308 -4 0 1 1 6 
85196.8 446519 4.303 -5 0 1 1 6 
85195.4 446518 4.296 -5 0 1 1 6 
85196.2 446519 4.306 -5 0 1 1 6 
85196.5 446519 4.304 -5 0 1 1 6 
85199.7 446521 4.336 -4 0 1 1 6 
85203.7 446524 4.435 -3 0 1 1 6 
85202.1 446523 4.34 -4 0 1 1 6 
85196 446518 4.307 -5 0 1 1 6 
85194.4 446517 4.369 -5 0 1 1 6 
85198.9 446521 4.326 -4 0 1 1 6 
85194.1 446517 4.316 -5 0 1 1 6 
85194.7 446517 4.465 -5 0 1 1 6 
85193.3 446516 4.316 -5 0 1 1 6 
85193.8 446517 4.302 -5 0 1 1 6 
85191.9 446515 3.155 -5 0 2 2 6 
85200.5 446522 4.348 -4 0 1 1 6 
85201.3 446522 4.354 -4 0 1 1 6 
85191 446515 3.025 -5 0 1 1 6 
85198.4 446520 4.322 -4 0 1 1 6 
85192.1 446515 3.02 -5 0 1 1 6 
85191.6 446515 2.985 -5 0 1 1 6 
85190.5 446514 2.95 -6 0 1 1 6 
85195.2 446518 4.313 -5 0 1 1 6 
85194.9 446517 4.378 -5 0 1 1 6 
85190.2 446514 5.222 -6 0 2 1 6 
85190.2 446514 7.677 -6 0 2 1 6 
85189.7 446514 2.98 -6 0 2 2 6 
85193.1 446516 4.421 -5 0 1 1 6 
85190.3 446513 13.835 -6 0 3 1 6 
85190.1 446513 12.002 -6 0 3 3 6 
85190.2 446514 2.961 -6 0 1 1 6 
85191.3 446515 2.972 -5 0 1 1 6 
85190.2 446513 13.14 -6 0 3 2 6 
85190.2 446513 10.171 -6 0 3 1 6 
85189.4 446512 17.372 -6 0 1 1 6 
85190.2 446513 17.849 -6 0 1 1 6 
85189.7 446513 17.374 -6 0 1 1 6 
85189.1 446512 17.381 -6 0 1 1 6 
85193.6 446516 4.306 -5 0 1 1 6 
85188.1 446511 17.354 -6 0 1 1 6 
85192.7 446516 2.929 -5 0 1 1 6 
85188.6 446512 17.362 -6 0 1 1 6 
85190 446514 3.377 -6 0 2 2 6 
85190.3 446513 16.263 -6 0 1 1 6 
85189.4 446513 2.987 -6 0 3 3 6 
85186.5 446510 17.328 -6 0 1 1 6 
85189.9 446513 17.424 -6 0 1 1 6 
85186 446510 17.409 -7 0 1 1 6 
85187.8 446511 17.344 -6 0 1 1 6 
85188.4 446512 17.372 -6 0 1 1 6 
85186.3 446510 17.341 -7 0 1 1 6 
85185 446509 17.415 -7 0 1 1 6 
85187.1 446511 17.334 -6 0 1 1 6 
85190.8 446514 3.02 -6 0 1 1 6 
85191.9 446515 3.823 -5 0 2 1 6 
85185.5 446509 17.343 -7 0 1 1 6 
85184.5 446509 18.281 -7 0 1 1 6 
85187.3 446511 17.343 -6 0 1 1 6 
85184.3 446508 18.263 -7 0 2 1 6 
85184.7 446509 17.546 -7 0 1 1 6 
85188.9 446512 17.373 -6 0 1 1 6 
85186.8 446510 17.335 -6 0 1 1 6 
85183.6 446508 18.732 -7 0 2 1 6 
85185.7 446510 17.385 -7 0 1 1 6 
85183.4 446508 17.35 -7 0 2 2 6 
85184.2 446508 17.674 -7 0 2 2 6 
85187.6 446511 17.336 -6 0 1 1 6 
85184.1 446508 18.498 -7 0 1 1 6 
85182 446507 18.684 -7 0 1 1 6 
85183.8 446508 18.511 -7 0 2 1 6 
85181.2 446506 18.665 -7 0 1 1 6 
85182.8 446507 18.668 -7 0 1 1 6 
85181 446506 18.791 -7 0 1 1 6 
85180.6 446506 19.91 -8 0 1 1 6 
85180.2 446505 18.765 -8 0 2 1 6 
85183.7 446508 17.359 -7 0 2 2 6 
85192.4 446516 2.924 -5 0 1 1 6 
85183 446507 18.669 -7 0 1 1 6 
85190.1 446513 9.631 -6 0 3 2 6 
85178.7 446504 17.325 -8 0 1 1 6 
85182.2 446507 18.671 -7 0 1 1 6 
85178.9 446504 17.326 -8 0 1 1 6 
85181.8 446506 19.154 -7 0 1 1 6 
85180.9 446506 20.021 -7 0 1 1 6 
85178.4 446504 17.34 -8 0 1 1 6 
85182.5 446507 18.655 -7 0 1 1 6 
85183.3 446508 18.733 -7 0 1 1 6 
85179.7 446505 17.284 -8 0 1 1 6 
85185.2 446509 17.413 -7 0 1 1 6 
85177.9 446504 17.48 -8 0 1 1 6 
85181.5 446506 19.037 -7 0 1 1 6 
85178.2 446504 17.353 -8 0 1 1 6 
85179.5 446505 17.291 -8 0 1 1 6 
85177.4 446503 17.763 -8 0 1 1 6 
85179.2 446505 17.327 -8 0 1 1 6 
85177.7 446503 17.731 -8 0 1 1 6 
85180 446505 17.208 -8 0 2 2 6 
85226.3 446541 17.42 0 0 1 1 6 
85225.2 446541 17.403 0 0 1 1 6 
85225 446540 17.378 0 0 1 1 6 
85226 446541 17.418 0 0 1 1 6 
85224.7 446540 17.391 0 0 1 1 6 
85225.5 446541 17.405 0 0 1 1 6 
85223.2 446539 17.359 0 0 1 1 6 
85227 446542 17.454 0 0 1 1 6 
85226.8 446542 17.435 0 0 1 1 6 
85224.2 446540 17.37 0 0 1 1 6 
85227.3 446542 17.823 0 0 1 1 6 
85224 446540 17.364 0 0 1 1 6 
85226.5 446542 17.423 0 0 1 1 6 
85221.4 446538 17.392 -1 0 1 1 6 
85221.9 446538 17.32 -1 0 1 1 6 
85223.4 446539 17.359 0 0 1 1 6 
85221.6 446538 17.326 -1 0 1 1 6 
85220.4 446537 18.623 -1 0 1 1 6 
85225.8 446541 17.437 0 0 1 1 6 
85222.4 446538 17.339 0 0 1 1 6 
85222.1 446538 17.337 0 0 1 1 6 
85220.9 446537 18.666 -1 0 2 1 6 
85224.5 446540 17.366 0 0 1 1 6 
85219.8 446536 17.373 -1 0 1 1 6 
85219.4 446536 19.884 -1 0 2 1 6 
85222.7 446539 17.35 0 0 1 1 6 
85221.1 446537 17.34 -1 0 1 1 6 
85222.9 446539 17.36 0 0 1 1 6 
85218.9 446536 19.896 -1 0 1 1 6 
85217.8 446535 17.345 -1 0 1 1 6 
85217.5 446535 17.351 -1 0 1 1 6 
85219.2 446536 19.894 -1 0 1 1 6 
85223.7 446539 17.374 0 0 1 1 6 
85217.3 446534 17.355 -1 0 1 1 6 
85218.4 446535 19.881 -1 0 2 1 6 
85216.7 446534 17.389 -1 0 1 1 6 
85219.3 446536 17.318 -1 0 2 2 6 
85215.5 446533 17.404 -2 0 1 1 6 
85216.2 446534 17.432 -1 0 1 1 6 
85214.9 446533 17.446 -2 0 1 1 6 
85216.5 446534 17.387 -1 0 1 1 6 
85219.6 446536 17.38 -1 0 1 1 6 
85220.9 446537 17.437 -1 0 2 2 6 
85218.1 446535 19.899 -1 0 1 1 6 
85216 446533 17.404 -2 0 1 1 6 
85215.7 446533 17.404 -2 0 1 1 6 
85220.7 446537 19.352 -1 0 1 1 6 
85217 446534 17.361 -1 0 1 1 6 
85215.2 446533 17.428 -2 0 1 1 6 
85218.7 446535 19.892 -1 0 1 1 6 
85214.7 446532 17.827 -2 0 1 1 6 
85203.4 446524 4.461 -3 0 3 1 6 
85202.3 446524 4.42 -4 0 1 1 6 
85202.6 446524 4.419 -4 0 1 1 6 
85202.8 446524 4.426 -4 0 1 1 6 
85201.5 446523 4.346 -4 0 1 1 6 
85201.8 446523 4.367 -4 0 1 1 6 
85201.3 446523 4.345 -4 0 1 1 6 
85199.1 446521 4.337 -4 0 1 1 6 
85198.6 446521 4.326 -4 0 1 1 6 
85199.7 446521 4.352 -4 0 1 1 6 
85200.7 446522 4.353 -4 0 1 1 6 
85198.1 446520 4.336 -4 0 1 1 6 
85202 446523 4.387 -4 0 1 1 6 
85201 446523 4.343 -4 0 1 1 6 
85196.7 446519 4.312 -5 0 1 1 6 
85197.5 446520 4.316 -4 0 1 1 6 
85203.1 446524 4.451 -4 0 3 1 6 
85196.4 446519 4.319 -5 0 1 1 6 
85195.9 446519 4.3 -5 0 1 1 6 
85196.2 446519 4.311 -5 0 1 1 6 
85198.8 446521 4.335 -4 0 1 1 6 
85195.4 446518 4.298 -5 0 1 1 6 
85198.3 446520 4.332 -4 0 1 1 6 
85200.4 446522 4.364 -4 0 1 1 6 
85194.6 446518 4.586 -5 0 1 1 6 
85197.8 446520 4.314 -4 0 1 1 6 
85199.4 446521 4.343 -4 0 1 1 6 
85200.2 446522 4.357 -4 0 1 1 6 
85199.9 446522 4.356 -4 0 1 1 6 
85194.1 446517 4.469 -5 0 1 1 6 
85193.8 446517 4.315 -5 0 1 1 6 
85195.6 446518 4.313 -5 0 1 1 6 
85197.2 446520 4.315 -4 0 1 1 6 
85192.3 446516 2.929 -5 0 1 1 6 
85191.8 446515 3.705 -5 0 1 1 6 
85194.3 446517 4.566 -5 0 1 1 6 
85193.5 446517 4.318 -5 0 1 1 6 
85194.8 446518 4.482 -5 0 1 1 6 
85190.7 446515 3.017 -6 0 1 1 6 
85190.2 446514 2.957 -6 0 1 1 6 
85189.9 446514 3.371 -6 0 1 1 6 
85190.1 446514 7.673 -6 0 3 1 6 
85193.2 446517 4.318 -5 0 1 1 6 
85193 446516 4.431 -5 0 1 1 6 
85191 446515 3.011 -5 0 1 1 6 
85190.1 446514 12.937 -6 0 3 2 6 
85189.3 446514 2.968 -6 0 2 2 6 
85190.2 446514 16.243 -6 0 2 1 6 
85191.6 446515 3.74 -5 0 1 1 6 
85190.2 446514 13.821 -6 0 3 1 6 
85191.3 446515 3.629 -5 0 1 1 6 
85192.6 446516 2.922 -5 0 1 1 6 
85190 446514 12.007 -6 0 3 3 6 
85190.2 446513 17.835 -6 0 1 1 6 
85189.1 446513 17.387 -6 0 1 1 6 
85188.8 446512 17.371 -6 0 1 1 6 
85190.1 446514 9.835 -6 0 2 1 6 
85188 446512 17.355 -6 0 1 1 6 
85188.8 446513 3.016 -6 0 2 2 6 
85188.5 446512 17.35 -6 0 1 1 6 
85187.8 446512 17.332 -6 0 1 1 6 
85189.6 446513 17.388 -6 0 1 1 6 
85189.3 446513 17.385 -6 0 1 1 6 
85190.4 446514 2.944 -6 0 1 1 6 
85186.5 446511 17.322 -6 0 1 1 6 
85192 446516 2.951 -5 0 1 1 6 
85197 446519 4.314 -5 0 1 1 6 
85187 446511 17.333 -6 0 1 1 6 
85185.1 446510 17.407 -7 0 1 1 6 
85186.7 446511 17.334 -6 0 1 1 6 
85185.7 446510 17.404 -7 0 1 1 6 
85185.4 446510 17.339 -7 0 1 1 6 
85186.2 446510 17.333 -7 0 1 1 6 
85189.9 446513 17.56 -6 0 1 1 6 
85183.3 446508 17.362 -7 0 1 1 6 
85184.6 446509 17.354 -7 0 1 1 6 
85189.6 446514 2.969 -6 0 3 3 6 
85189.9 446514 5.345 -6 0 3 2 6 
85184.2 446509 17.74 -7 0 1 1 6 
85184.4 446509 17.355 -7 0 1 1 6 
85188.3 446512 17.376 -6 0 1 1 6 
85184.9 446509 17.41 -7 0 1 1 6 
85181.9 446507 18.661 -7 0 1 1 6 
85185.9 446510 17.405 -7 0 1 1 6 
85187.5 446511 17.349 -6 0 1 1 6 
85182.4 446507 18.728 -7 0 1 1 6 
85182.6 446507 17.336 -7 0 2 2 6 
85180.9 446506 18.674 -7 0 1 1 6 
85187.2 446511 17.333 -6 0 1 1 6 
85181.7 446507 19.146 -7 0 2 1 6 
85182.7 446508 18.77 -7 0 2 1 6 
85180.5 446506 19.944 -8 0 1 1 6 
85180.8 446506 19.711 -7 0 2 1 6 
85195.1 446518 4.32 -5 0 1 1 6 
85181.4 446507 19.019 -7 0 1 1 6 
85181.2 446507 15.423 -7 0 2 2 6 
85181.1 446506 18.685 -7 0 1 1 6 
85179.6 446505 17.324 -8 0 1 1 6 
85182.8 446508 17.357 -7 0 1 1 6 
85183.1 446508 17.361 -7 0 1 1 6 
85180.3 446506 16.462 -7 0 2 2 6 
85183.7 446508 18.51 -7 0 1 1 6 
85178.6 446504 17.34 -8 0 1 1 6 
85182.2 446507 18.688 -7 0 1 1 6 
85178.1 446504 17.354 -8 0 1 1 6 
85177.8 446504 17.442 -8 0 1 1 6 
85180.1 446506 18.753 -8 0 1 1 6 
85177.6 446504 17.725 -8 0 1 1 6 
85179.4 446505 17.315 -8 0 1 1 6 
85178.9 446505 17.327 -8 0 1 1 6 
85177.4 446503 17.831 -8 0 1 1 6 
85179.1 446505 17.343 -8 0 1 1 6 
85178.3 446504 17.339 -8 0 1 1 6 
85227.2 446542 17.824 0 0 1 1 6 
85226.2 446542 17.415 0 0 1 1 6 
85227 446542 17.598 0 0 1 1 6 
85225.9 446541 17.416 0 0 1 1 6 
85225.4 446541 17.401 0 0 1 1 6 
85225.7 446541 17.453 0 0 1 1 6 
85223.6 446540 17.363 0 0 1 1 6 
85223.9 446540 17.379 0 0 1 1 6 
85226.7 446542 17.429 0 0 1 1 6 
85222.6 446539 17.348 0 0 1 1 6 
85222.3 446539 17.347 0 0 1 1 6 
85225.2 446541 17.396 0 0 1 1 6 
85224.1 446540 17.373 0 0 1 1 6 
85222.1 446538 17.331 0 0 1 1 6 
85221.8 446538 17.329 0 0 1 1 6 
85224.6 446540 17.381 0 0 1 1 6 
85226.5 446542 17.424 0 0 1 1 6 
85220.8 446537 17.327 -1 0 1 1 6 
85223.1 446539 17.354 0 0 1 1 6 
85220.4 446537 19.415 -1 0 2 1 6 
85220.6 446537 19.418 -1 0 1 1 6 
85224.9 446541 17.392 0 0 1 1 6 
85220.3 446537 17.461 -1 0 2 2 6 
85219.8 446537 17.374 -1 0 1 1 6 
85224.4 446540 17.386 0 0 1 1 6 
85223.4 446539 17.37 0 0 1 1 6 
85219.5 446536 17.378 -1 0 1 1 6 
85221.6 446538 17.331 -1 0 1 1 6 
85219.2 446536 17.323 -1 0 1 1 6 
85217.2 446535 17.366 -1 0 1 1 6 
85216.4 446534 17.375 -1 0 1 1 6 
85222.9 446539 17.35 0 0 1 1 6 
85218.3 446535 19.873 -1 0 1 1 6 
85217.7 446535 17.348 -1 0 1 1 6 
85216.7 446534 17.364 -1 0 1 1 6 
85216.9 446534 17.365 -1 0 1 1 6 
85218.6 446536 19.88 -1 0 1 1 6 
85215.9 446534 17.389 -1 0 1 1 6 
85214.6 446533 17.824 -2 0 1 1 6 
85215.6 446533 17.398 -2 0 1 1 6 
85214.9 446533 17.441 -2 0 1 1 6 
85218.8 446536 19.895 -1 0 1 1 6 
85215.1 446533 17.416 -2 0 1 1 6 
85217.4 446535 17.348 -1 0 1 1 6 
85215.4 446533 17.411 -2 0 1 1 6 
85221.1 446538 17.379 -1 0 1 1 6 
85219.1 446536 19.886 -1 0 1 1 6 
85218.1 446535 19.895 -1 0 1 1 6 
85214.4 446532 17.848 -2 0 2 1 6 
85221.3 446538 17.39 -1 0 1 1 6 
85202.2 446524 4.435 -4 0 3 1 6 
85201.2 446523 4.413 -4 0 1 1 6 
85216.2 446534 17.401 -1 0 1 1 6 
85201.4 446523 4.427 -4 0 1 1 6 
85200.9 446523 4.379 -4 0 1 1 6 
85200.1 446522 4.36 -4 0 1 1 6 
85199.6 446522 4.375 -4 0 1 1 6 
85199.3 446522 4.368 -4 0 1 1 6 
85198.8 446521 4.339 -4 0 1 1 6 
85202 446524 4.441 -4 0 1 1 6 
85198.5 446521 4.335 -4 0 1 1 6 
85199.8 446522 4.381 -4 0 1 1 6 
85197.4 446520 4.328 -4 0 1 1 6 
85196.9 446520 4.312 -4 0 1 1 6 
85200.4 446522 4.371 -4 0 1 1 6 
85195.8 446519 4.316 -5 0 1 1 6 
85197.7 446520 4.346 -4 0 1 1 6 
85197.2 446520 4.323 -4 0 1 1 6 
85201.7 446523 4.423 -4 0 1 1 6 
85194.8 446518 4.561 -5 0 1 1 6 
85194.5 446518 4.692 -5 0 1 1 6 
85194 446517 4.638 -5 0 1 1 6 
85195 446518 4.34 -5 0 1 1 6 
85195.3 446518 4.332 -5 0 1 1 6 
85200.7 446523 4.366 -4 0 1 1 6 
85193.7 446517 4.465 -5 0 3 1 6 
85196.4 446519 4.314 -5 0 1 1 6 
85194.3 446518 4.725 -5 0 1 1 6 
85192.5 446516 2.903 -5 0 2 2 6 
85193.2 446517 4.325 -5 0 1 1 6 
85192.2 446516 2.917 -5 0 1 1 6 
85196.6 446519 4.321 -5 0 1 1 6 
85196.1 446519 4.322 -5 0 1 1 6 
85191.8 446516 3.699 -5 0 1 1 6 
85191.5 446516 3.745 -5 0 1 1 6 
85192.9 446517 4.434 -5 0 1 1 6 
85198.2 446521 4.333 -4 0 1 1 6 
85193.4 446517 0.809 -5 0 3 2 6 
85192 446516 2.938 -5 0 1 1 6 
85193.4 446517 4.321 -5 0 1 1 6 
85190.9 446515 2.988 -5 0 1 1 6 
85199.1 446521 4.369 -4 0 1 1 6 
85191.2 446515 3.704 -5 0 1 1 6 
85195.6 446519 4.315 -5 0 1 1 6 
85190.6 446515 3.015 -5 0 1 1 6 
85190.1 446515 3.601 -6 0 1 1 6 
85190.2 446514 16.252 -6 0 2 1 6 
85192.6 446516 4.448 -5 0 2 1 6 
85190.1 446514 17.832 -6 0 1 1 6 
85189.8 446514 5.278 -6 0 3 2 6 
85189.5 446513 17.393 -6 0 1 1 6 
85198 446521 4.33 -4 0 1 1 6 
85188.7 446513 3.011 -6 0 2 2 6 
85189 446513 17.383 -6 0 1 1 6 
85187.9 446512 17.338 -6 0 1 1 6 
85188.2 446512 17.411 -6 0 1 1 6 
85188.5 446512 17.363 -6 0 1 1 6 
85189.3 446513 17.376 -6 0 1 1 6 
85189.8 446514 7.741 -6 0 2 2 6 
85187.4 446512 17.327 -6 0 1 1 6 
85189.9 446514 3.369 -6 0 1 1 6 
85190.1 446514 7.719 -6 0 3 1 6 
85189.8 446513 17.778 -6 0 1 1 6 
85189.6 446514 2.958 -6 0 3 3 6 
85187.2 446511 17.318 -6 0 1 1 6 
85186.4 446511 17.326 -6 0 1 1 6 
85190 446514 11.988 -6 0 1 1 6 
85186.1 446511 17.32 -6 0 1 1 6 
85187.7 446512 17.351 -6 0 1 1 6 
85184.3 446509 17.404 -7 0 1 1 6 
85186.9 446511 17.335 -6 0 1 1 6 
85186.6 446511 17.325 -6 0 1 1 6 
85184.8 446510 17.415 -7 0 1 1 6 
85185.1 446510 17.412 -7 0 1 1 6 
85190.3 446515 2.951 -6 0 1 1 6 
85183.9 446509 18.497 -7 0 1 1 6 
85188.7 446513 17.372 -6 0 1 1 6 
85182 446507 17.345 -7 0 1 1 6 
85185.3 446510 17.345 -7 0 1 1 6 
85184 446509 17.429 -7 0 1 1 6 
85183.7 446509 18.511 -7 0 1 1 6 
85185.9 446510 17.404 -7 0 1 1 6 
85181.1 446507 18.682 -7 0 1 1 6 
85185.6 446510 17.407 -7 0 1 1 6 
85181.7 446507 17.44 -7 0 2 2 6 
85183.2 446508 17.371 -7 0 1 1 6 
85182.7 446508 17.356 -7 0 1 1 6 
85181.3 446507 18.735 -7 0 1 1 6 
85180.8 446506 18.671 -7 0 1 1 6 
85181.6 446507 18.825 -7 0 1 1 6 
85180 446506 18.705 -8 0 1 1 6 
85181.9 446507 18.762 -7 0 2 1 6 
85190 446514 9.566 -6 0 2 1 6 
85183 446508 17.357 -7 0 1 1 6 
85178.3 446505 17.344 -8 0 1 1 6 
85180.6 446506 18.793 -7 0 1 1 6 
85178.8 446505 17.336 -8 0 1 1 6 
85177.7 446504 17.369 -8 0 1 1 6 
85178 446504 17.351 -8 0 1 1 6 
85179.3 446505 17.332 -8 0 1 1 6 
85178.5 446505 17.345 -8 0 1 1 6 
85182.2 446508 17.343 -7 0 1 1 6 
85177.3 446504 17.841 -8 0 1 1 6 
85179.6 446506 17.296 -8 0 1 1 6 
85177.5 446504 17.714 -8 0 1 1 6 
85179 446505 17.373 -8 0 1 1 6 
85184.5 446509 17.419 -7 0 1 1 6 
85180.3 446506 18.671 -7 0 1 1 6 
85182.5 446508 17.34 -7 0 1 1 6 
85227.2 446543 17.84 0 0 1 1 6 
85226.9 446543 17.785 0 0 1 1 6 
85225.4 446541 17.404 0 0 1 1 6 
85225.9 446542 17.408 0 0 1 1 6 
85225.6 446542 17.419 0 0 1 1 6 
85224.3 446541 17.384 0 0 1 1 6 
85226.4 446542 17.413 0 0 1 1 6 
85224.1 446540 17.381 0 0 1 1 6 
85226.1 446542 17.407 0 0 1 1 6 
85223.3 446540 17.372 0 0 1 1 6 
85223 446540 17.365 0 0 1 1 6 
85222 446539 17.346 0 0 1 1 6 
85225.1 446541 17.399 0 0 1 1 6 
85223.8 446540 17.372 0 0 1 1 6 
85222.5 446539 17.352 0 0 1 1 6 
85222.3 446539 17.349 0 0 1 1 6 
85222.8 446539 17.36 0 0 1 1 6 
85221.5 446538 17.339 -1 0 1 1 6 
85221.7 446539 17.34 0 0 1 1 6 
85220.5 446538 19.345 -1 0 1 1 6 
85224.6 446541 17.392 0 0 1 1 6 
85219.7 446537 17.35 -1 0 1 1 6 
85219.4 446537 17.377 -1 0 1 1 6 
85219.9 446537 17.311 -1 0 1 1 6 
85218.5 446536 19.886 -1 0 1 1 6 
85220.7 446538 17.333 -1 0 1 1 6 
85218.8 446536 19.888 -1 0 1 1 6 
85221 446538 17.386 -1 0 1 1 6 
85218.2 446536 19.894 -1 0 1 1 6 
85220.3 446537 19.407 -1 0 1 1 6 
85221.3 446538 17.391 -1 0 1 1 6 
85217.8 446535 19.883 -1 0 2 1 6 
85217.4 446535 17.348 -1 0 1 1 6 
85216.1 446534 17.387 -1 0 1 1 6 
85217.1 446535 17.365 -1 0 1 1 6 
85215.3 446534 17.408 -2 0 1 1 6 
85215.8 446534 17.396 -1 0 1 1 6 
85214.6 446533 17.821 -2 0 1 1 6 
85226.7 446542 17.439 0 0 1 1 6 
85223.5 446540 17.358 0 0 1 1 6 
85215.1 446533 17.429 -2 0 1 1 6 
85218 446536 19.872 -1 0 1 1 6 
85216.6 446535 17.382 -1 0 1 1 6 
85216.8 446535 17.369 -1 0 1 1 6 
85219 446536 19.884 -1 0 1 1 6 
85216.3 446534 17.383 -1 0 1 1 6 
85214.3 446533 17.848 -2 0 2 1 6 
85214.8 446533 17.44 -2 0 1 1 6 
85217.6 446535 17.344 -1 0 2 2 6 
85224.9 446541 17.393 0 0 1 1 6 
85215.6 446534 17.393 -2 0 1 1 6 
85201.1 446523 4.447 -4 0 1 1 6 
85200.1 446522 4.389 -4 0 1 1 6 
85200.3 446523 4.418 -4 0 1 1 6 
85200.6 446523 4.43 -4 0 1 1 6 
85199.8 446522 4.392 -4 0 1 1 6 
85198.5 446521 4.347 -4 0 1 1 6 
85197.9 446521 4.345 -4 0 1 1 6 
85199.2 446522 4.377 -4 0 1 1 6 
85197.1 446520 4.331 -4 0 1 1 6 
85196.3 446520 4.323 -5 0 1 1 6 
85196 446519 4.326 -5 0 1 1 6 
85196.6 446520 4.324 -5 0 1 1 6 
85200.8 446523 4.427 -4 0 1 1 6 
85195.5 446519 4.321 -5 0 1 1 6 
85198.7 446521 4.357 -4 0 1 1 6 
85199 446522 4.375 -4 0 1 1 6 
85195.2 446519 4.328 -5 0 1 1 6 
85194.7 446518 4.508 -5 0 1 1 6 
85194.5 446518 4.722 -5 0 1 1 6 
85201.4 446524 4.45 -4 0 3 1 6 
85199.5 446522 4.395 -4 0 1 1 6 
85193.1 446517 4.31 -5 0 1 1 6 
85196.9 446520 4.329 -4 0 1 1 6 
85193.9 446518 4.752 -5 0 1 1 6 
85193.6 446518 4.561 -5 0 1 1 6 
85197.4 446520 4.334 -4 0 1 1 6 
85194.2 446518 4.778 -5 0 1 1 6 
85192.1 446516 2.916 -5 0 1 1 6 
85191.9 446516 2.918 -5 0 1 1 6 
85198.2 446521 4.35 -4 0 1 1 6 
85195.8 446519 4.323 -5 0 1 1 6 
85197.6 446521 4.346 -4 0 1 1 6 
85190.1 446515 3.587 -6 0 1 1 6 
85192.9 446517 4.425 -5 0 1 1 6 
85192.4 446517 2.868 -5 0 2 2 6 
85190.3 446515 2.936 -6 0 1 1 6 
85191.6 446516 3.118 -5 0 2 2 6 
85190.8 446515 2.948 -5 0 1 1 6 
85191.7 446516 3.752 -5 0 2 1 6 
85193.4 446517 4.339 -5 0 1 1 6 
85190.1 446514 16.302 -6 0 3 1 6 
85189.5 446514 3.584 -6 0 3 3 6 
85191.2 446516 3.711 -5 0 1 1 6 
85195 446519 4.337 -5 0 1 1 6 
85189.7 446514 5.502 -6 0 3 2 6 
85189.9 446514 11.963 -6 0 1 1 6 
85189.7 446514 17.818 -6 0 1 1 6 
85189.8 446514 5.9 -6 0 3 1 6 
85189.8 446514 13.833 -6 0 3 2 6 
85189.8 446515 3.334 -6 0 1 1 6 
85188.7 446513 17.379 -6 0 1 1 6 
85189.9 446514 16.925 -6 0 2 2 6 
85189.9 446514 9.53 -6 0 2 1 6 
85188.1 446513 17.377 -6 0 1 1 6 
85190 446514 17.839 -6 0 2 1 6 
85189.7 446514 7.756 -6 0 2 2 6 
85187.1 446512 17.34 -6 0 1 1 6 
85187.9 446512 17.358 -6 0 1 1 6 
85192.6 446517 4.449 -5 0 2 1 6 
85187.6 446512 17.341 -6 0 1 1 6 
85189.4 446514 17.38 -6 0 1 1 6 
85186.6 446511 17.331 -6 0 1 1 6 
85188.4 446513 17.361 -6 0 1 1 6 
85189.2 446513 17.373 -6 0 1 1 6 
85187.3 446512 17.338 -6 0 1 1 6 
85185.8 446511 17.396 -7 0 1 1 6 
85186.3 446511 17.313 -6 0 1 1 6 
85184.2 446509 17.42 -7 0 1 1 6 
85186.8 446512 17.322 -6 0 1 1 6 
85185 446510 17.345 -7 0 1 1 6 
85183.2 446509 17.364 -7 0 1 1 6 
85182.9 446508 17.357 -7 0 1 1 6 
85183.6 446509 18.505 -7 0 1 1 6 
85182.4 446508 17.351 -7 0 1 1 6 
85185.5 446511 17.413 -7 0 1 1 6 
85191.4 446516 3.74 -5 0 1 1 6 
85182.1 446508 17.338 -7 0 1 1 6 
85184.5 446510 17.42 -7 0 1 1 6 
85182.6 446508 17.351 -7 0 1 1 6 
85188.9 446513 17.372 -6 0 1 1 6 
85184.7 446510 17.361 -7 0 1 1 6 
85190.6 446515 2.995 -5 0 1 1 6 
85185.3 446510 17.338 -7 0 1 1 6 
85180.8 446507 17.337 -7 0 2 2 6 
85180.5 446507 17.34 -7 0 2 2 6 
85180.5 446507 18.743 -7 0 1 1 6 
85183.8 446509 18.498 -7 0 1 1 6 
85179.5 446506 17.293 -8 0 1 1 6 
85184 446509 17.367 -7 0 1 1 6 
85181.9 446508 17.347 -7 0 1 1 6 
85180 446506 18.698 -8 0 1 1 6 
85179 446505 17.377 -8 0 1 1 6 
85178.4 446505 17.35 -8 0 1 1 6 
85180.7 446507 18.764 -7 0 2 1 6 
85186 446511 17.316 -6 0 1 1 6 
85178.7 446505 17.337 -8 0 1 1 6 
85177.9 446505 17.358 -8 0 1 1 6 
85180.2 446506 18.698 -7 0 1 1 6 
85177.2 446504 17.836 -8 0 1 1 6 
85179.2 446506 17.317 -8 0 1 1 6 
85177.7 446504 17.354 -8 0 1 1 6 
85181.4 446507 17.431 -7 0 1 1 6 
85181.1 446507 17.336 -7 0 1 1 6 
85188.7 446514 2.943 -6 0 3 3 6 
85181.6 446507 17.426 -7 0 1 1 6 
85177.4 446504 17.485 -8 0 1 1 6 
85181 446507 18.78 -7 0 2 1 6 
85178.2 446505 17.353 -8 0 1 1 6 
85226.8 446543 17.776 0 0 1 1 6 
85226 446542 17.444 0 0 1 1 6 
85226.5 446543 17.43 0 0 1 1 6 
85225 446542 17.395 0 0 1 1 6 
85224.7 446541 17.398 0 0 1 1 6 
85223.9 446541 17.377 0 0 1 1 6 
85225.2 446542 17.403 0 0 1 1 6 
85226.3 446543 17.419 0 0 1 1 6 
85222.7 446540 17.36 0 0 1 1 6 
85224.2 446541 17.378 0 0 1 1 6 
85225.7 446542 17.405 0 0 1 1 6 
85221.9 446539 17.354 0 0 1 1 6 
85223.2 446540 17.375 0 0 1 1 6 
85227 446543 17.83 0 0 2 1 6 
85223.4 446540 17.366 0 0 1 1 6 
85227 446543 16.196 0 0 2 2 6 
85225.5 446542 17.412 0 0 1 1 6 
85222.4 446540 17.348 0 0 1 1 6 
85221.4 446539 17.348 -1 0 1 1 6 
85222.9 446540 17.37 0 0 1 1 6 
85219.5 446537 17.356 -1 0 1 1 6 
85224.5 446541 17.385 0 0 1 1 6 
85220.9 446538 17.394 -1 0 1 1 6 
85218.9 446537 19.88 -1 0 1 1 6 
85220.4 446538 19.341 -1 0 1 1 6 
85218.4 446536 19.888 -1 0 1 1 6 
85218.6 446536 19.877 -1 0 1 1 6 
85218.1 446536 19.89 -1 0 1 1 6 
85221.6 446539 17.334 0 0 1 1 6 
85219.8 446538 17.316 -1 0 1 1 6 
85220.1 446538 19.339 -1 0 1 1 6 
85221.1 446539 17.403 -1 0 1 1 6 
85222.1 446539 17.351 0 0 1 1 6 
85217 446535 17.355 -1 0 1 1 6 
85217.9 446536 19.885 -1 0 1 1 6 
85216.2 446535 17.376 -1 0 1 1 6 
85217.2 446536 17.341 -1 0 1 1 6 
85216.7 446535 17.368 -1 0 1 1 6 
85214.9 446534 17.411 -2 0 1 1 6 
85219.3 446537 17.381 -1 0 1 1 6 
85215.7 446534 17.404 -1 0 1 1 6 
85214.4 446533 17.826 -2 0 1 1 6 
85223.7 446541 17.379 0 0 1 1 6 
85215.9 446535 17.391 -1 0 1 1 6 
85214.2 446533 17.837 -2 0 2 1 6 
85216.5 446535 17.356 -1 0 1 1 6 
85214.7 446534 17.436 -2 0 1 1 6 
85215.4 446534 17.401 -2 0 1 1 6 
85220.6 446538 17.331 -1 0 1 1 6 
85217.5 446536 17.346 -1 0 1 1 6 
85219 446537 17.326 -1 0 1 1 6 
85215.2 446534 17.406 -2 0 1 1 6 
85200.2 446523 4.467 -4 0 3 1 6 
85199.9 446523 4.44 -4 0 3 1 6 
85199.4 446522 4.424 -4 0 1 1 6 
85198.6 446522 4.386 -4 0 1 1 6 
85198.9 446522 4.405 -4 0 1 1 6 
85197 446521 4.335 -4 0 1 1 6 
85197.8 446521 4.357 -4 0 1 1 6 
85198.1 446521 4.355 -4 0 1 1 6 
85199.1 446522 4.433 -4 0 1 1 6 
85196.7 446520 4.34 -4 0 1 1 6 
85196.4 446520 4.341 -5 0 1 1 6 
85196.2 446520 4.332 -5 0 1 1 6 
85195.6 446520 4.331 -5 0 1 1 6 
85197.5 446521 4.347 -4 0 1 1 6 
85199.7 446523 4.435 -4 0 1 1 6 
85195.9 446520 4.322 -5 0 1 1 6 
85194.6 446519 4.465 -5 0 1 1 6 
85195.4 446519 4.321 -5 0 1 1 6 
85193.2 446518 4.415 -5 0 1 1 6 
85197.2 446521 4.353 -4 0 1 1 6 
85193 446517 4.328 -5 0 1 1 6 
85195.1 446519 4.337 -5 0 1 1 6 
85192.7 446517 4.42 -5 0 1 1 6 
85192.3 446517 2.935 -5 0 2 2 6 
85192.5 446517 4.433 -5 0 2 1 6 
85193.8 446518 4.73 -5 0 1 1 6 
85194.1 446518 4.733 -5 0 1 1 6 
85192 446517 2.98 -5 0 1 1 6 
85189.9 446515 3.335 -6 0 1 1 6 
85194.8 446519 4.322 -5 0 1 1 6 
85190.7 446516 2.936 -5 0 1 1 6 
85191.8 446517 2.975 -5 0 1 1 6 
85190.2 446515 2.924 -6 0 1 1 6 
85191.2 446516 2.925 -5 0 1 1 6 
85189.4 446515 3.552 -6 0 2 2 6 
85189.6 446515 5.571 -6 0 2 1 6 
85189.6 446515 7.879 -6 0 2 2 6 
85193.5 446518 4.589 -5 0 1 1 6 
85189.8 446514 14.357 -6 0 3 2 6 
85198.3 446522 4.37 -4 0 1 1 6 
85189.9 446514 17.832 -6 0 3 1 6 
85189.8 446515 9.537 -6 0 2 1 6 
85189.3 446514 7.893 -6 0 2 2 6 
85189.3 446514 17.395 -6 0 1 1 6 
85188.8 446513 17.384 -6 0 1 1 6 
85188.5 446513 17.379 -6 0 1 1 6 
85189.7 446514 16.579 -6 0 3 3 6 
85189.6 446514 17.817 -6 0 1 1 6 
85191.5 446516 2.962 -5 0 1 1 6 
85189.8 446514 17.166 -6 0 3 2 6 
85190.4 446516 2.99 -5 0 1 1 6 
85188 446513 17.361 -6 0 1 1 6 
85187.5 446512 17.353 -6 0 1 1 6 
85194.3 446519 4.623 -5 0 2 1 6 
85189.8 446515 11.953 -6 0 2 1 6 
85186.4 446512 17.326 -6 0 1 1 6 
85188.3 446513 17.359 -6 0 1 1 6 
85190 446514 16.267 -6 0 3 1 6 
85187.2 446512 17.344 -6 0 1 1 6 
85189.6 446515 3.348 -6 0 1 1 6 
85184.9 446510 17.345 -7 0 1 1 6 
85190.9 446516 2.924 -5 0 1 1 6 
85186.9 446512 17.327 -6 0 1 1 6 
85185.6 446511 17.394 -7 0 1 1 6 
85185.9 446511 17.323 -6 0 1 1 6 
85185.1 446511 17.333 -7 0 1 1 6 
85185.4 446511 17.396 -7 0 1 1 6 
85183 446509 17.355 -7 0 2 2 6 
85184.6 446510 17.349 -7 0 1 1 6 
85186.7 446512 17.317 -6 0 1 1 6 
85182.3 446508 17.35 -7 0 1 1 6 
85187.7 446513 17.339 -6 0 1 1 6 
85181.7 446508 17.343 -7 0 1 1 6 
85182.5 446509 17.35 -7 0 1 1 6 
85183.4 446509 18.508 -7 0 1 1 6 
85189.1 446514 17.386 -6 0 1 1 6 
85181.5 446508 17.434 -7 0 1 1 6 
85184.1 446510 17.419 -7 0 1 1 6 
85182.8 446509 17.361 -7 0 1 1 6 
85180.2 446507 17.311 -7 0 1 1 6 
85180.9 446507 17.329 -7 0 1 1 6 
85186.2 446511 17.323 -6 0 1 1 6 
85184.4 446510 17.422 -7 0 1 1 6 
85182 446508 17.348 -7 0 1 1 6 
85179.1 446506 17.311 -8 0 1 1 6 
85188.5 446514 2.923 -6 0 3 3 6 
85180.7 446507 17.326 -7 0 1 1 6 
85177.8 446505 17.362 -8 0 1 1 6 
85183.7 446509 18.428 -7 0 1 1 6 
85183.2 446509 18.501 -7 0 2 1 6 
85179.4 446506 17.306 -8 0 1 1 6 
85178.3 446505 17.348 -8 0 1 1 6 
85183.8 446510 17.358 -7 0 1 1 6 
85177.1 446504 17.831 -8 0 1 1 6 
85178.1 446505 17.359 -8 0 1 1 6 
85179.6 446506 17.323 -8 0 1 1 6 
85177.3 446505 17.469 -8 0 1 1 6 
85181.2 446508 17.444 -7 0 1 1 6 
85180.4 446507 17.32 -7 0 1 1 6 
85177.5 446505 17.353 -8 0 1 1 6 
85178.9 446506 17.359 -8 0 1 1 6 
85178.6 446506 17.332 -8 0 1 1 6 
85179.9 446507 17.334 -7 0 1 1 6 
85226.6 446543 17.751 0 0 1 1 6 
85226.4 446543 17.426 0 0 1 1 6 
85225.3 446542 17.398 0 0 1 1 6 
85224.8 446542 17.392 0 0 1 1 6 
85225.8 446543 17.416 0 0 1 1 6 
85224.3 446541 17.391 0 0 1 1 6 
85226.9 446543 17.863 0 0 2 1 6 
85224 446541 17.383 0 0 1 1 6 
85222.7 446540 17.357 0 0 1 1 6 
85226.8 446544 16.186 0 0 2 2 6 
85223 446540 17.361 0 0 1 1 6 
85226.1 446543 17.426 0 0 1 1 6 
85223.8 446541 17.368 0 0 1 1 6 
85221.2 446539 17.347 0 0 1 1 6 
85223.5 446541 17.374 0 0 1 1 6 
85222.2 446540 17.364 0 0 1 1 6 
85223.3 446541 17.36 0 0 1 1 6 
85225.1 446542 17.401 0 0 1 1 6 
85222 446540 17.354 0 0 1 1 6 
85219.7 446538 17.322 -1 0 1 1 6 
85222.5 446540 17.365 0 0 1 1 6 
85220.7 446539 17.407 -1 0 1 1 6 
85220.2 446538 19.35 -1 0 1 1 6 
85221.7 446539 17.352 0 0 1 1 6 
85219.4 446538 17.368 -1 0 1 1 6 
85225.6 446542 17.411 0 0 1 1 6 
85220.4 446538 17.329 -1 0 1 1 6 
85217.7 446536 19.889 -1 0 1 1 6 
85218.5 446537 19.878 -1 0 1 1 6 
85218.7 446537 19.889 -1 0 1 1 6 
85220.9 446539 17.411 -1 0 1 1 6 
85219.1 446537 17.38 -1 0 1 1 6 
85221.5 446539 17.359 0 0 1 1 6 
85218 446536 19.898 -1 0 1 1 6 
85218.2 446537 19.885 -1 0 1 1 6 
85215.5 446535 17.39 -1 0 1 1 6 
85216.6 446535 17.358 -1 0 1 1 6 
85216 446535 17.384 -1 0 1 1 6 
85215.3 446534 17.403 -1 0 1 1 6 
85215.8 446535 17.372 -1 0 1 1 6 
85214.5 446534 17.434 -2 0 1 1 6 
85214.8 446534 17.424 -2 0 1 1 6 
85214 446533 17.861 -2 0 2 1 6 
85215 446534 17.411 -2 0 1 1 6 
85216.3 446535 17.377 -1 0 1 1 6 
85214.3 446534 17.821 -2 0 1 1 6 
85220 446538 19.359 -1 0 1 1 6 
85216.8 446536 17.355 -1 0 1 1 6 
85217.3 446536 17.332 -1 0 1 1 6 
85218.9 446537 17.321 -1 0 1 1 6 
85217.1 446536 17.35 -1 0 1 1 6 
85224.5 446542 17.407 0 0 1 1 6 
85198.2 446522 4.428 -4 0 1 1 6 
85198.7 446522 4.443 -4 0 3 1 6 
85197.1 446521 4.364 -4 0 1 1 6 
85197.6 446522 4.422 -4 0 1 1 6 
85196.8 446521 4.348 -4 0 1 1 6 
85196.3 446521 4.355 -4 0 1 1 6 
85195.5 446520 4.341 -5 0 1 1 6 
85195.7 446520 4.34 -5 0 1 1 6 
85194.7 446519 4.334 -5 0 1 1 6 
85196.5 446521 4.349 -4 0 1 1 6 
85194.4 446519 4.344 -5 0 1 1 6 
85194.9 446519 4.339 -5 0 1 1 6 
85197.4 446521 4.38 -4 0 1 1 6 
85193.1 446518 4.341 -5 0 1 1 6 
85193.9 446519 4.506 -5 0 1 1 6 
85197.9 446522 4.426 -4 0 1 1 6 
85192.3 446517 4.445 -5 0 2 1 6 
85192.5 446518 4.428 -5 0 1 1 6 
85193.6 446518 4.51 -5 0 1 1 6 
85191.3 446517 2.969 -5 0 1 1 6 
85191.1 446517 2.981 -5 0 1 1 6 
85190.8 446516 2.976 -5 0 1 1 6 
85192.8 446518 4.328 -5 0 1 1 6 
85192.1 446517 3.062 -5 0 2 2 6 
85190 446516 2.916 -5 0 1 1 6 
85191.6 446517 2.961 -5 0 1 1 6 
85193.4 446518 4.45 -5 0 1 1 6 
85189.5 446515 3.343 -6 0 1 1 6 
85191.9 446517 3.089 -5 0 1 1 6 
85188.9 446515 3.005 -6 0 3 3 6 
85189.2 446515 2.905 -6 0 2 2 6 
85189.6 446515 9.549 -6 0 3 1 6 
85189.4 446515 7.753 -6 0 3 2 6 
85190.2 446516 2.987 -5 0 1 1 6 
85198.4 446522 4.432 -4 0 1 1 6 
85190.5 446516 2.981 -5 0 1 1 6 
85194.1 446519 4.449 -5 0 1 1 6 
85189.8 446515 16.23 -6 0 3 1 6 
85195.2 446520 4.337 -5 0 1 1 6 
85189.4 446514 17.831 -6 0 1 1 6 
85189.6 446515 11.983 -6 0 1 1 6 
85189.2 446514 17.395 -6 0 1 1 6 
85188.4 446514 17.362 -6 0 1 1 6 
85188.1 446513 17.361 -6 0 1 1 6 
85187.1 446513 17.341 -6 0 1 1 6 
85189.6 446515 14.415 -6 0 3 2 6 
85187.8 446513 17.395 -6 0 1 1 6 
85187.3 446513 17.335 -6 0 1 1 6 
85189.5 446515 5.883 -6 0 2 1 6 
85187.6 446513 17.337 -6 0 1 1 6 
85185.2 446511 17.396 -7 0 1 1 6 
85185 446511 17.337 -7 0 1 1 6 
85188.6 446514 17.375 -6 0 1 1 6 
85184.7 446511 17.32 -7 0 1 1 6 
85189.7 446516 2.916 -6 0 1 1 6 
85185.7 446512 17.309 -6 0 1 1 6 
85185.5 446511 17.388 -6 0 1 1 6 
85188.4 446514 2.918 -6 0 3 3 6 
85186 446512 17.317 -6 0 1 1 6 
85186.8 446512 17.323 -6 0 1 1 6 
85183.9 446510 17.42 -7 0 1 1 6 
85183.3 446510 18.501 -7 0 1 1 6 
85184.4 446511 17.346 -7 0 1 1 6 
85182.4 446509 17.352 -7 0 1 1 6 
85181.6 446508 17.348 -7 0 1 1 6 
85186.2 446512 17.315 -6 0 1 1 6 
85184.2 446510 17.414 -7 0 1 1 6 
85182.9 446509 17.359 -7 0 1 1 6 
85188.9 446514 17.388 -6 0 1 1 6 
85183.7 446510 17.357 -7 0 1 1 6 
85196 446520 4.359 -5 0 1 1 6 
85180 446507 17.32 -7 0 1 1 6 
85186.5 446512 17.327 -6 0 1 1 6 
85182.6 446509 17.368 -7 0 1 1 6 
85179.2 446507 17.309 -8 0 1 1 6 
85179.5 446507 17.313 -7 0 1 1 6 
85181.8 446509 17.34 -7 0 1 1 6 
85183.5 446510 18.405 -7 0 1 1 6 
85181.1 446508 17.474 -7 0 1 1 6 
85178.7 446506 17.359 -8 0 1 1 6 
85180.5 446508 17.332 -7 0 1 1 6 
85178.9 446506 17.312 -8 0 1 1 6 
85182.1 446509 17.349 -7 0 1 1 6 
85177.6 446505 17.345 -8 0 1 1 6 
85177.1 446505 17.589 -8 0 1 1 6 
85176.9 446505 17.84 -8 0 1 1 6 
85180.8 446508 17.344 -7 0 1 1 6 
85177.9 446506 17.343 -8 0 1 1 6 
85177.4 446505 17.352 -8 0 1 1 6 
85189.7 446515 17.803 -6 0 1 1 6 
85178.2 446506 17.321 -8 0 1 1 6 
85180.3 446507 17.326 -7 0 1 1 6 
85181.3 446508 17.423 -7 0 1 1 6 
85179.7 446507 17.313 -7 0 1 1 6 
85178.4 446506 17.318 -8 0 1 1 6 
85226.7 446544 16.207 0 0 2 2 6 
85225.9 446543 17.425 0 0 1 1 6 
85225.4 446543 17.408 0 0 1 1 6 
85225.7 446543 17.406 0 0 1 1 6 
85226.2 446543 17.437 0 0 1 1 6 
85224.9 446542 17.388 0 0 1 1 6 
85224.1 446542 17.391 0 0 1 1 6 
85225.2 446543 17.389 0 0 1 1 6 
85224.4 446542 17.386 0 0 1 1 6 
85224.7 446542 17.398 0 0 1 1 6 
85222.1 446540 17.353 0 0 1 1 6 
85221.8 446540 17.355 0 0 1 1 6 
85222.3 446540 17.368 0 0 1 1 6 
85223.9 446542 17.38 0 0 1 1 6 
85221.6 446540 17.351 0 0 1 1 6 
85223.1 446541 17.368 0 0 1 1 6 
85221.3 446540 17.358 0 0 1 1 6 
85226.5 446544 17.804 0 0 1 1 6 
85221.1 446539 17.354 0 0 1 1 6 
85226.7 446544 17.822 0 0 2 1 6 
85223.4 446541 17.38 0 0 1 1 6 
85220.5 446539 17.418 -1 0 1 1 6 
85220.3 446539 17.355 -1 0 1 1 6 
85219.8 446538 19.349 -1 0 1 1 6 
85220.1 446539 19.342 -1 0 1 1 6 
85218.3 446537 19.89 -1 0 1 1 6 
85219.5 446538 17.332 -1 0 1 1 6 
85220.8 446539 17.412 -1 0 1 1 6 
85218.1 446537 19.879 -1 0 1 1 6 
85217.8 446537 19.88 -1 0 1 1 6 
85222.6 446541 17.363 0 0 1 1 6 
85217.3 446536 19.886 -1 0 2 1 6 
85217.6 446537 19.88 -1 0 1 1 6 
85216.4 446536 17.367 -1 0 1 1 6 
85218.7 446538 17.462 -1 0 1 1 6 
85215.7 446535 17.377 -1 0 1 1 6 
85218.6 446537 19.881 -1 0 1 1 6 
85219.3 446538 17.373 -1 0 1 1 6 
85216.9 446536 17.36 -1 0 1 1 6 
85214.4 446534 17.437 -2 0 1 1 6 
85222.9 446541 17.362 0 0 1 1 6 
85214.9 446535 17.402 -2 0 1 1 6 
85215.4 446535 17.393 -1 0 1 1 6 
85215.1 446535 17.396 -1 0 1 1 6 
85216.7 446536 17.346 -1 0 1 1 6 
85215.9 446535 17.371 -1 0 1 1 6 
85216.2 446536 17.383 -1 0 1 1 6 
85214.6 446534 17.413 -2 0 1 1 6 
85219 446538 17.403 -1 0 1 1 6 
85213.9 446534 17.837 -2 0 2 1 6 
85214.1 446534 17.825 -2 0 1 1 6 
85223.6 446541 17.368 0 0 1 1 6 
85197.2 446522 4.435 -4 0 1 1 6 
85196.4 446521 4.426 -4 0 1 1 6 
85195.3 446520 4.357 -5 0 1 1 6 
85195.9 446521 4.368 -5 0 1 1 6 
85194.6 446520 4.353 -5 0 1 1 6 
85196.1 446521 4.386 -4 0 1 1 6 
85196.9 446521 4.438 -4 0 1 1 6 
85193.5 446519 4.35 -5 0 1 1 6 
85193.2 446519 4.344 -5 0 1 1 6 
85193.7 446519 4.345 -5 0 1 1 6 
85192 446518 2.934 -5 0 2 2 6 
85195.6 446520 4.36 -5 0 1 1 6 
85192.9 446518 4.346 -5 0 1 1 6 
85195.1 446520 4.352 -5 0 1 1 6 
85190.7 446517 2.974 -5 0 1 1 6 
85196.7 446521 4.427 -4 0 1 1 6 
85192.4 446518 4.414 -5 0 1 1 6 
85194.8 446520 4.353 -5 0 1 1 6 
85189.6 446516 2.914 -6 0 1 1 6 
85192.7 446518 4.324 -5 0 1 1 6 
85190.9 446517 2.974 -5 0 1 1 6 
85189 446515 2.872 -6 0 3 3 6 
85191.4 446517 2.962 -5 0 1 1 6 
85191.7 446518 3.05 -5 0 1 1 6 
85189.4 446516 5.871 -6 0 3 1 6 
85189.8 446516 2.927 -5 0 1 1 6 
85191.2 446517 2.962 -5 0 1 1 6 
85189 446515 7.615 -6 0 2 2 6 
85194 446519 4.353 -5 0 1 1 6 
85189.5 446515 9.532 -6 0 3 1 6 
85189.4 446515 8.727 -6 0 3 2 6 
85189.5 446515 17.251 -6 0 3 2 6 
85189.4 446515 16.271 -6 0 3 3 6 
85189.3 446515 7.707 -6 0 3 3 6 
85188.2 446515 2.927 -6 0 3 3 6 
85189 446515 17.391 -6 0 1 1 6 
85189.6 446515 17.841 -6 0 3 1 6 
85189.4 446515 14.399 -6 0 3 2 6 
85188.7 446514 17.389 -6 0 1 1 6 
85197.5 446522 4.454 -4 0 3 1 6 
85194.3 446519 4.341 -5 0 1 1 6 
85189.3 446516 5.304 -6 0 3 2 6 
85189.5 446515 11.961 -6 0 2 1 6 
85187.4 446513 17.348 -6 0 1 1 6 
85186.4 446513 17.318 -6 0 1 1 6 
85188.5 446514 17.377 -6 0 1 1 6 
85187.9 446514 17.355 -6 0 1 1 6 
85190.1 446516 2.988 -5 0 1 1 6 
85187.2 446513 17.332 -6 0 1 1 6 
85185.6 446512 17.311 -6 0 1 1 6 
85189.6 446515 16.215 -6 0 3 1 6 
85185.9 446512 17.312 -6 0 1 1 6 
85192.1 446518 4.445 -5 0 2 1 6 
85185.1 446512 17.387 -7 0 1 1 6 
85188.2 446514 17.355 -6 0 1 1 6 
85184 446511 17.412 -7 0 1 1 6 
85183.4 446510 18.433 -7 0 2 1 6 
85186.7 446513 17.357 -6 0 1 1 6 
85186.9 446513 17.394 -6 0 1 1 6 
85186.1 446512 17.307 -6 0 1 1 6 
85184.6 446511 17.324 -7 0 1 1 6 
85182.9 446510 18.533 -7 0 2 1 6 
85182.5 446510 17.359 -7 0 1 1 6 
85189.3 446515 17.829 -6 0 1 1 6 
85181.9 446509 17.345 -7 0 1 1 6 
85183.8 446511 17.425 -7 0 1 1 6 
85183.5 446510 17.372 -7 0 1 1 6 
85184.8 446511 17.319 -7 0 1 1 6 
85184.3 446511 17.342 -7 0 1 1 6 
85181.2 446509 17.366 -7 0 1 1 6 
85181.7 446509 17.348 -7 0 1 1 6 
85180.1 446508 17.329 -7 0 1 1 6 
85190.4 446516 2.976 -5 0 1 1 6 
85180.4 446508 17.333 -7 0 1 1 6 
85183.3 446510 17.945 -7 0 2 2 6 
85182.7 446510 17.359 -7 0 2 2 6 
85178.6 446507 17.376 -8 0 1 1 6 
85182.2 446509 17.365 -7 0 1 1 6 
85185.4 446512 17.381 -6 0 1 1 6 
85179.3 446507 17.318 -7 0 1 1 6 
85181.4 446509 17.35 -7 0 1 1 6 
85180.9 446508 17.436 -7 0 1 1 6 
85183.2 446510 18.502 -7 0 1 1 6 
85187.7 446514 17.362 -6 0 1 1 6 
85178.8 446507 17.322 -8 0 1 1 6 
85178.3 446506 17.346 -8 0 1 1 6 
85180.6 446508 17.333 -7 0 1 1 6 
85179.1 446507 17.318 -8 0 1 1 6 
85176.8 446505 17.829 -8 0 1 1 6 
85178 446506 17.34 -8 0 1 1 6 
85177.8 446506 17.346 -8 0 1 1 6 
85179.9 446508 17.325 -7 0 1 1 6 
85177.5 446506 17.336 -8 0 1 1 6 
85177.2 446505 17.349 -8 0 1 1 6 
85179.6 446507 17.323 -7 0 1 1 6 
85177 446505 17.537 -8 0 1 1 6 
85226.6 446544 16.188 0 0 3 2 6 
85226.2 446544 17.44 0 0 1 1 6 
85224.8 446543 17.401 0 0 1 1 6 
85225.1 446543 17.403 0 0 1 1 6 
85224.3 446542 17.375 0 0 1 1 6 
85226.4 446544 17.813 0 0 1 1 6 
85223.6 446542 17.366 0 0 1 1 6 
85223.8 446542 17.369 0 0 1 1 6 
85222.8 446541 17.368 0 0 1 1 6 
85223.3 446542 17.364 0 0 1 1 6 
85222.5 446541 17.378 0 0 1 1 6 
85225.6 446543 17.413 0 0 1 1 6 
85220.7 446540 17.415 -1 0 1 1 6 
85220.5 446539 17.418 -1 0 1 1 6 
85220 446539 19.354 -1 0 1 1 6 
85221.7 446540 17.352 0 0 1 1 6 
85222 446541 17.363 0 0 1 1 6 
85221.5 446540 17.358 0 0 1 1 6 
85220.2 446539 17.362 -1 0 1 1 6 
85226.7 446544 17.821 0 0 3 1 6 
85218.9 446538 17.396 -1 0 1 1 6 
85225.9 446544 17.42 0 0 1 1 6 
85219.2 446538 17.357 -1 0 1 1 6 
85218.5 446538 19.886 -1 0 1 1 6 
85218 446537 19.878 -1 0 1 1 6 
85218.7 446538 17.348 -1 0 1 1 6 
85217.7 446537 19.889 -1 0 1 1 6 
85222.3 446541 17.376 0 0 1 1 6 
85217.5 446537 19.889 -1 0 1 1 6 
85216.6 446536 17.354 -1 0 1 1 6 
85223 446541 17.367 0 0 1 1 6 
85225.4 446543 17.424 0 0 1 1 6 
85226.6 446544 14.515 0 0 3 3 6 
85216.3 446536 17.356 -1 0 1 1 6 
85217 446536 19.909 -1 0 2 1 6 
85216.9 446537 17.346 -1 0 2 2 6 
85219.4 446539 17.334 -1 0 1 1 6 
85215.6 446536 17.384 -1 0 1 1 6 
85224.6 446543 17.4 0 0 1 1 6 
85216.1 446536 17.371 -1 0 1 1 6 
85215.3 446535 17.393 -1 0 1 1 6 
85214.5 446535 17.414 -2 0 1 1 6 
85219.8 446539 19.348 -1 0 1 1 6 
85214.3 446535 17.422 -2 0 1 1 6 
85224.1 446542 17.37 0 0 1 1 6 
85213.8 446534 17.84 -2 0 2 1 6 
85215.1 446535 17.401 -1 0 1 1 6 
85217.2 446537 19.888 -1 0 1 1 6 
85214 446534 17.801 -2 0 1 1 6 
85215.8 446536 17.373 -1 0 1 1 6 
85218.2 446537 19.885 -1 0 1 1 6 
85214.8 446535 17.41 -2 0 1 1 6 
85196.3 446521 4.441 -4 0 3 1 6 
85195 446520 4.388 -5 0 1 1 6 
85195.6 446521 4.419 -5 0 1 1 6 
85194.2 446520 4.34 -5 0 1 1 6 
85192.9 446519 4.327 -5 0 1 1 6 
85194 446520 4.343 -5 0 1 1 6 
85194.5 446520 4.352 -5 0 1 1 6 
85192.6 446518 4.336 -5 0 1 1 6 
85192.1 446518 4.426 -5 0 1 1 6 
85192.3 446518 4.377 -5 0 1 1 6 
85193.1 446519 4.336 -5 0 1 1 6 
85194.7 446520 4.371 -5 0 1 1 6 
85193.7 446519 4.346 -5 0 1 1 6 
85191.1 446517 2.966 -5 0 1 1 6 
85190.1 446517 2.994 -5 0 1 1 6 
85191.4 446518 2.956 -5 0 1 1 6 
85189.3 446516 3.117 -6 0 1 1 6 
85189.8 446516 2.981 -5 0 1 1 6 
85195.8 446521 4.424 -5 0 1 1 6 
85189.5 446516 2.929 -6 0 1 1 6 
85196.1 446521 4.422 -4 0 1 1 6 
85189.5 446515 17.887 -6 0 2 1 6 
85189.2 446516 7.702 -6 0 2 2 6 
85189.2 446515 17.835 -6 0 1 1 6 
85188.9 446515 17.372 -6 0 1 1 6 
85189.4 446516 11.963 -6 0 2 1 6 
85190.8 446517 2.968 -5 0 1 1 6 
85191.7 446518 2.953 -5 0 1 1 6 
85190.6 446517 2.964 -5 0 1 1 6 
85187.9 446514 17.362 -6 0 1 1 6 
85189.4 446515 17.051 -6 0 2 2 6 
85188.5 446515 2.992 -6 0 2 2 6 
85186.8 446513 17.4 -6 0 1 1 6 
85188.7 446515 17.366 -6 0 1 1 6 
85186.3 446513 17.391 -6 0 1 1 6 
85187.4 446514 17.351 -6 0 1 1 6 
85187.6 446514 17.353 -6 0 1 1 6 
85186.1 446513 17.387 -6 0 1 1 6 
85189.4 446516 9.512 -6 0 2 1 6 
85190.3 446517 2.968 -5 0 1 1 6 
85189.2 446516 5.427 -6 0 1 1 6 
85195.3 446521 4.414 -5 0 1 1 6 
85184.5 446511 17.328 -7 0 1 1 6 
85184.3 446511 17.335 -7 0 1 1 6 
85185.8 446512 17.363 -6 0 1 1 6 
85188.4 446515 17.372 -6 0 1 1 6 
85188.2 446514 17.371 -6 0 1 1 6 
85185 446512 17.403 -7 0 1 1 6 
85183.2 446510 17.216 -7 0 2 2 6 
85184.8 446512 17.34 -7 0 1 1 6 
85183.3 446510 17.997 -7 0 2 1 6 
85182.8 446510 18.506 -7 0 2 1 6 
85185.5 446512 17.321 -6 0 1 1 6 
85193.4 446519 4.348 -5 0 1 1 6 
85186.6 446513 17.393 -6 0 1 1 6 
85184 446511 17.406 -7 0 1 1 6 
85183.1 446510 18.508 -7 0 1 1 6 
85182.4 446510 17.366 -7 0 1 1 6 
85180.9 446509 17.393 -7 0 1 1 6 
85183.7 446511 17.414 -7 0 1 1 6 
85180.6 446508 17.344 -7 0 1 1 6 
85179.8 446508 17.314 -7 0 1 1 6 
85187.1 446513 17.338 -6 0 1 1 6 
85181.4 446509 17.351 -7 0 1 1 6 
85181.1 446509 17.349 -7 0 1 1 6 
85179.5 446508 17.337 -7 0 1 1 6 
85180 446508 17.337 -7 0 1 1 6 
85183.5 446511 17.356 -7 0 1 1 6 
85179 446507 17.324 -8 0 1 1 6 
85178 446506 17.335 -8 0 1 1 6 
85180.3 446508 17.342 -7 0 1 1 6 
85181.6 446509 17.357 -7 0 1 1 6 
85178.2 446507 17.333 -8 0 1 1 6 
85177.2 446506 17.355 -8 0 1 1 6 
85176.7 446505 17.82 -8 0 1 1 6 
85179.3 446507 17.326 -7 0 1 1 6 
85181.9 446509 17.35 -7 0 1 1 6 
85176.9 446506 17.382 -8 0 1 1 6 
85182.2 446510 17.349 -7 0 1 1 6 
85189.4 446515 14.119 -6 0 1 1 6 
85185.3 446512 17.337 -6 0 1 1 6 
85177.7 446506 17.346 -8 0 1 1 6 
85178.5 446507 17.337 -8 0 1 1 6 
85182.7 446510 17.334 -7 0 2 2 6 
85178.8 446507 17.313 -8 0 1 1 6 
85177.4 446506 17.355 -8 0 1 1 6 
85226.6 446544 17.834 1 0 3 1 6 
85225.8 446544 17.426 0 0 1 1 6 
85226.3 446544 17.812 0 0 1 1 6 
85225 446543 17.407 0 0 1 1 6 
85226.6 446544 16.195 1 0 3 2 6 
85223.8 446542 17.384 0 0 1 1 6 
85224.5 446543 17.397 0 0 1 1 6 
85225.3 446543 17.413 0 0 1 1 6 
85222.5 446541 17.364 0 0 1 1 6 
85222.2 446541 17.375 0 0 1 1 6 
85223 446542 17.366 0 0 1 1 6 
85222.7 446541 17.368 0 0 1 1 6 
85225.6 446544 17.422 0 0 1 1 6 
85224.8 446543 17.413 0 0 1 1 6 
85222 446541 17.368 0 0 1 1 6 
85220.4 446540 17.409 -1 0 1 1 6 
85221.2 446540 17.346 0 0 1 1 6 
85221.4 446540 17.357 0 0 1 1 6 
85226.1 446544 17.443 0 0 1 1 6 
85220.7 446540 17.405 0 0 1 1 6 
85219.7 446539 19.342 -1 0 1 1 6 
85219.1 446539 17.338 -1 0 1 1 6 
85221.7 446541 17.37 0 0 1 1 6 
85218.8 446538 17.396 -1 0 1 1 6 
85219.4 446539 17.343 -1 0 1 1 6 
85223.5 446542 17.379 0 0 1 1 6 
85223.2 446542 17.381 0 0 1 1 6 
85218.4 446538 19.883 -1 0 1 1 6 
85217.2 446537 19.877 -1 0 1 1 6 
85220.2 446539 17.36 -1 0 1 1 6 
85224.3 446543 17.397 0 0 1 1 6 
85218.2 446538 19.893 -1 0 1 1 6 
85217.4 446537 19.886 -1 0 1 1 6 
85220.9 446540 17.363 0 0 1 1 6 
85216.8 446537 17.352 -1 0 2 2 6 
85215.5 446536 17.378 -1 0 1 1 6 
85214.7 446535 17.406 -1 0 1 1 6 
85215.2 446536 17.405 -1 0 1 1 6 
85224 446542 17.393 0 0 1 1 6 
85218.6 446538 17.348 -1 0 1 1 6 
85213.7 446534 17.858 -2 0 1 1 6 
85216.3 446536 17.349 -1 0 1 1 6 
85217.9 446538 19.891 -1 0 1 1 6 
85214.5 446535 17.417 -2 0 1 1 6 
85216 446536 17.455 -1 0 1 1 6 
85217.7 446537 19.881 -1 0 1 1 6 
85215 446535 17.397 -1 0 1 1 6 
85214 446535 17.721 -2 0 1 1 6 
85214.2 446535 17.434 -2 0 1 1 6 
85215.8 446536 17.386 -1 0 1 1 6 
85216.9 446537 19.871 -1 0 2 1 6 
85216.6 446537 17.362 -1 0 1 1 6 
85195.2 446521 4.426 -5 0 1 1 6 
85194.7 446520 4.437 -5 0 1 1 6 
85195.5 446521 4.453 -5 0 3 1 6 
85193.6 446520 4.34 -5 0 1 1 6 
85193.1 446519 4.355 -5 0 1 1 6 
85193.4 446519 4.356 -5 0 1 1 6 
85192.3 446519 4.371 -5 0 1 1 6 
85191.1 446518 2.951 -5 0 1 1 6 
85191.6 446518 3.05 -5 0 1 1 6 
85192.5 446519 4.347 -5 0 1 1 6 
85192 446518 4.431 -5 0 1 1 6 
85190 446517 2.93 -5 0 1 1 6 
85192.8 446519 4.344 -5 0 1 1 6 
85189.5 446517 3.313 -5 0 1 1 6 
85191.3 446518 2.938 -5 0 1 1 6 
85189.2 446516 5.262 -6 0 2 1 6 
85190.5 446517 3.085 -5 0 1 1 6 
85188.4 446516 2.959 -6 0 2 2 6 
85189.3 446516 11.953 -6 0 2 1 6 
85189 446516 3.381 -6 0 2 2 6 
85190.8 446518 2.967 -5 0 1 1 6 
85194.4 446520 4.419 -5 0 1 1 6 
85190.2 446517 2.887 -5 0 1 1 6 
85194.1 446520 4.388 -5 0 1 1 6 
85193.9 446520 4.359 -5 0 1 1 6 
85187.6 446514 17.361 -6 0 1 1 6 
85195 446521 4.428 -5 0 1 1 6 
85189.1 446516 7.691 -6 0 1 1 6 
85189.2 446516 2.932 -6 0 1 1 6 
85188.1 446515 17.365 -6 0 1 1 6 
85187.3 446514 17.349 -6 0 1 1 6 
85188.6 446515 17.374 -6 0 1 1 6 
85189.8 446517 3.574 -5 0 1 1 6 
85186.8 446514 17.379 -6 0 1 1 6 
85188.4 446515 17.367 -6 0 1 1 6 
85188.9 446515 17.382 -6 0 1 1 6 
85189.3 446516 13.941 -6 0 1 1 6 
85186 446513 17.38 -6 0 1 1 6 
85187.8 446514 17.377 -6 0 1 1 6 
85185.7 446513 17.38 -6 0 1 1 6 
85184.7 446512 17.348 -7 0 1 1 6 
85183.4 446511 17.352 -7 0 1 1 6 
85183.7 446511 17.416 -7 0 1 1 6 
85185.2 446512 17.382 -6 0 1 1 6 
85187 446514 17.333 -6 0 1 1 6 
85183.9 446511 17.386 -7 0 1 1 6 
85183.1 446511 17.399 -7 0 2 2 6 
85182.1 446510 17.353 -7 0 1 1 6 
85181.8 446510 17.341 -7 0 1 1 6 
85184.4 446512 17.341 -7 0 1 1 6 
85181.6 446510 17.363 -7 0 1 1 6 
85184.2 446512 17.341 -7 0 1 1 6 
85181.3 446509 17.354 -7 0 1 1 6 
85182.3 446510 17.372 -7 0 1 1 6 
85180.3 446509 17.33 -7 0 1 1 6 
85182.7 446510 18.518 -7 0 1 1 6 
85186.5 446513 17.392 -6 0 1 1 6 
85185.5 446513 17.378 -6 0 1 1 6 
85183.2 446511 18.002 -7 0 2 1 6 
85186.3 446513 17.378 -6 0 1 1 6 
85179.2 446508 17.324 -7 0 1 1 6 
85181 446509 17.346 -7 0 1 1 6 
85180.5 446509 17.342 -7 0 1 1 6 
85180.8 446509 17.361 -7 0 1 1 6 
85180 446508 17.336 -7 0 1 1 6 
85178.9 446508 17.316 -7 0 1 1 6 
85189.2 446515 17.836 -6 0 1 1 6 
85179.7 446508 17.329 -7 0 1 1 6 
85179.5 446508 17.317 -7 0 1 1 6 
85177.9 446507 17.347 -8 0 1 1 6 
85183 446511 18.506 -7 0 1 1 6 
85178.4 446507 17.324 -8 0 1 1 6 
85176.7 446506 17.821 -8 0 1 1 6 
85177.1 446506 17.361 -8 0 1 1 6 
85176.9 446506 17.376 -8 0 1 1 6 
85177.6 446506 17.342 -8 0 1 1 6 
85177.4 446506 17.342 -8 0 1 1 6 
85176.4 446506 17.855 -8 0 2 1 6 
85178.7 446507 17.315 -8 0 1 1 6 
85178.2 446507 17.331 -8 0 1 1 6 
85185 446512 17.394 -7 0 1 1 6 
85226.3 446544 17.816 0 0 1 1 6 
85226 446544 17.444 0 0 1 1 6 
85224.7 446543 17.414 0 0 1 1 6 
85225 446543 17.414 0 0 1 1 6 
85223.4 446542 17.384 0 0 1 1 6 
85222.9 446542 17.37 0 0 1 1 6 
85224.2 446543 17.396 0 0 1 1 6 
85222.7 446542 17.375 0 0 1 1 6 
85225.7 446544 17.436 0 0 1 1 6 
85222.4 446541 17.371 0 0 1 1 6 
85221.4 446541 17.355 0 0 1 1 6 
85225.2 446544 17.419 0 0 1 1 6 
85224.5 446543 17.414 0 0 1 1 6 
85221.6 446541 17.362 0 0 1 1 6 
85223.2 446542 17.393 0 0 1 1 6 
85225.5 446544 17.418 0 0 1 1 6 
85223.9 446543 17.395 0 0 1 1 6 
85219.1 446539 17.344 -1 0 1 1 6 
85219.3 446539 17.358 -1 0 1 1 6 
85218.5 446539 17.362 -1 0 1 1 6 
85220.1 446540 17.415 -1 0 1 1 6 
85220.9 446540 17.349 0 0 1 1 6 
85219.9 446539 18.638 -1 0 1 1 6 
85218.1 446538 19.885 -1 0 1 1 6 
85221.9 446541 17.355 0 0 1 1 6 
85220.3 446540 17.417 -1 0 1 1 6 
85217.9 446538 19.874 -1 0 1 1 6 
85218.8 446539 17.405 -1 0 1 1 6 
85222.1 446541 17.366 0 0 1 1 6 
85218.3 446538 17.338 -1 0 2 2 6 
85217.1 446537 19.895 -1 0 1 1 6 
85216.7 446537 17.356 -1 0 2 2 6 
85223.7 446542 17.391 0 0 1 1 6 
85216.8 446537 19.865 -1 0 2 1 6 
85220.6 446540 17.398 0 0 1 1 6 
85215.5 446536 17.379 -1 0 1 1 6 
85214.4 446535 17.428 -2 0 1 1 6 
85221.1 446541 17.355 0 0 1 1 6 
85214.7 446535 17.414 -1 0 1 1 6 
85215.7 446536 17.572 -1 0 1 1 6 
85214.9 446536 17.392 -1 0 1 1 6 
85213.9 446535 17.466 -2 0 1 1 6 
85214.2 446535 17.429 -2 0 1 1 6 
