ply
format ascii 1.0
comment Created by CloudCompare v2.11.1 (Anoia)
comment Created 21/05/2021 09:35
obj_info Generated by CloudCompare!
element vertex 909
property double x
property double y
property double z
property float scalar_Point_Source_ID
property float scalar_User_Data
property float scalar_Scan_Angle_Rank
property float scalar_Flightline_Edge
property float scalar_Number_of_Returns
property float scalar_Return_Number
property float scalar_Time
property float scalar_Intensity
property float scalar_Classification
end_header
83428.8 445998 8.227 57134 2 -24 0 1 1 234196 85 6 
83428.8 445998 8.24 57134 2 -24 0 1 1 234196 91 6 
83428.8 445999 8.245 57134 2 -25 0 1 1 234196 81 6 
83428.8 445999 8.247 57134 2 -25 0 1 1 234196 92 6 
83428.8 446000 8.241 57134 2 -25 0 1 1 234196 84 6 
83428.7 446000 8.236 57134 2 -25 0 1 1 234196 88 6 
83428.7 446000 8.235 57134 2 -25 0 1 1 234196 105 6 
83428.7 446001 8.245 57134 2 -25 0 1 1 234196 74 6 
83428.7 446001 8.243 57134 2 -25 0 1 1 234196 64 6 
83428.7 446002 8.267 57134 2 -25 0 1 1 234196 86 6 
83428.7 446002 8.322 57134 2 -25 0 1 1 234196 127 6 
83428.6 446002 8.413 57134 2 -25 0 1 1 234196 235 6 
83428.6 446003 8.502 57134 2 -25 0 1 1 234196 292 6 
83428.6 446003 8.492 57134 2 -25 0 1 1 234196 191 6 
83428.6 446004 8.331 57134 2 -25 0 1 1 234196 100 6 
83428.6 446004 8.19 57134 2 -25 0 1 1 234196 99 6 
83428.6 446005 8.07 57134 2 -25 0 1 1 234196 120 6 
83428.6 446005 7.964 57134 2 -25 0 1 1 234196 100 6 
83428.6 446006 7.802 57134 2 -25 0 1 1 234196 92 6 
83428.6 446006 7.707 57134 2 -25 0 1 1 234196 93 6 
83428.5 446006 7.539 57134 2 -25 0 1 1 234196 116 6 
83428.5 446007 7.461 57134 2 -25 0 1 1 234196 96 6 
83428.5 446007 7.335 57134 2 -25 0 1 1 234196 80 6 
83428.5 446008 7.233 57134 2 -25 0 1 1 234196 90 6 
83428.5 446008 7.116 57134 2 -25 0 1 1 234196 88 6 
83428.5 446009 6.945 57134 2 -26 0 1 1 234196 38 6 
83428.5 446009 6.844 57134 2 -26 0 1 1 234196 100 6 
83428.5 446010 6.745 57134 2 -26 0 1 1 234196 93 6 
83428.4 446010 6.607 57134 2 -26 0 1 1 234196 96 6 
83428.4 446011 6.512 57134 2 -26 0 1 1 234196 97 6 
83428.4 446011 6.385 57134 2 -26 0 1 1 234196 93 6 
83428.4 446012 6.26 57134 2 -26 0 1 1 234196 108 6 
83428.4 446012 6.133 57134 2 -26 0 1 1 234196 95 6 
83428.4 446012 6.031 57134 2 -26 0 1 1 234196 89 6 
83428.4 446013 5.911 57134 2 -26 0 1 1 234196 79 6 
83428.4 446013 5.807 57134 2 -26 0 1 1 234196 88 6 
83428.4 446014 5.666 57134 2 -26 0 1 1 234196 89 6 
83428.3 446014 5.531 57134 2 -26 0 1 1 234196 90 6 
83428.3 446015 5.498 57134 2 -26 0 1 1 234196 33 6 
83428.3 446015 5.316 57134 2 -26 0 1 1 234196 92 6 
83428.3 446016 5.177 57134 2 -26 0 1 1 234196 89 6 
83428.3 446016 5.079 57134 2 -26 0 1 1 234196 68 6 
83428.3 446017 5.045 57134 2 -26 0 1 1 234196 79 6 
83428.3 446017 5.034 57134 2 -26 0 1 1 234196 77 6 
83428.3 446017 5.044 57134 2 -26 0 1 1 234196 162 6 
83428.2 446018 5.059 57134 2 -26 0 1 1 234196 224 6 
83428.2 446018 5.118 57134 2 -26 0 2 1 234196 63 6 
83428.2 446019 4.408 57134 2 -26 0 2 2 234196 21 6 
83428.2 446019 4.338 57134 2 -26 0 1 1 234196 90 6 
83428.2 446020 4.169 57134 2 -27 0 1 1 234196 90 6 
83428.2 446020 4.742 57134 2 -27 0 1 1 234196 33 6 
83428.2 446020 5.041 57134 2 -27 0 1 1 234196 161 6 
83428.1 446020 5.04 57134 2 -27 0 1 1 234196 139 6 
83428.1 446021 5.034 57134 2 -27 0 1 1 234196 205 6 
83428.1 446021 5.033 57134 2 -27 0 1 1 234196 186 6 
83428.1 446022 5.045 57134 2 -27 0 1 1 234196 107 6 
83428.1 446022 5.055 57134 2 -27 0 2 1 234196 29 6 
83428.1 446023 3.256 57134 2 -27 0 2 2 234196 38 6 
83428.1 446023 3.188 57134 2 -27 0 1 1 234196 87 6 
83428.1 446024 3.08 57134 2 -27 0 1 1 234196 89 6 
83428.1 446024 2.972 57134 2 -27 0 1 1 234196 87 6 
83428.1 446025 2.812 57134 2 -27 0 1 1 234196 88 6 
83428.1 446025 2.627 57134 2 -27 0 1 1 234196 147 6 
83428.1 446026 2.602 57134 2 -27 0 2 1 234196 204 6 
83428 446026 2.626 57134 2 -27 0 2 1 234196 9 6 
83430.4 445971 2.071 57134 2 -21 0 4 3 234196 28 6 
83430.4 445972 2.14 57134 2 -21 0 4 3 234196 24 6 
83430.4 445972 2.316 57134 2 -21 0 2 1 234196 77 6 
83430.4 445972 2.356 57134 2 -21 0 1 1 234196 474 6 
83430.3 445973 2.34 57134 2 -21 0 1 1 234196 536 6 
83430.3 445973 2.28 57134 2 -21 0 2 2 234196 259 6 
83430.3 445974 2.297 57134 2 -21 0 1 1 234196 202 6 
83430.3 445974 2.312 57134 2 -21 0 2 1 234196 162 6 
83430.3 445974 2.377 57134 2 -22 0 1 1 234196 243 6 
83430.3 445975 2.319 57134 2 -22 0 2 1 234196 135 6 
83430.3 445975 2.327 57134 2 -22 0 2 1 234196 124 6 
83430.2 445975 2.431 57134 2 -22 0 1 1 234196 507 6 
83430.2 445976 2.351 57134 2 -22 0 3 1 234196 142 6 
83430.2 445976 2.364 57134 2 -22 0 1 1 234196 174 6 
83430.2 445977 2.412 57134 2 -22 0 1 1 234196 320 6 
83430.2 445977 2.502 57134 2 -22 0 2 1 234196 134 6 
83430.2 445978 2.179 57134 2 -22 0 1 1 234196 229 6 
83430.1 445978 2.201 57134 2 -22 0 1 1 234196 195 6 
83430.1 445979 2.222 57134 2 -22 0 1 1 234196 231 6 
83430.1 445979 2.247 57134 2 -22 0 1 1 234196 250 6 
83430.1 445979 2.277 57134 2 -22 0 1 1 234196 212 6 
83430.1 445980 2.309 57134 2 -22 0 1 1 234196 212 6 
83430.1 445980 2.328 57134 2 -22 0 1 1 234196 224 6 
83430 445980 2.37 57134 2 -22 0 1 1 234196 247 6 
83430 445981 2.419 57134 2 -22 0 1 1 234196 231 6 
83430 445981 2.448 57134 2 -22 0 1 1 234196 202 6 
83430 445982 2.482 57134 2 -22 0 1 1 234196 204 6 
83430 445984 0.501 57134 2 -23 0 2 1 234196 60 6 
83430 445985 0.41 57134 2 -23 0 1 1 234196 66 6 
83429.9 445985 1.621 57134 2 -23 0 2 1 234196 22 6 
83430 445985 0.668 57134 2 -23 0 2 2 234196 141 6 
83429.9 445985 2.702 57134 2 -23 0 2 1 234196 301 6 
83429.9 445985 0.771 57134 2 -23 0 2 2 234196 210 6 
83429.8 445985 2.73 57134 2 -23 0 1 1 234196 594 6 
83429.8 445985 2.803 57134 2 -23 0 1 1 234196 251 6 
83429.8 445985 3.437 57134 2 -23 0 1 1 234196 119 6 
83429.7 445985 4.39 57134 2 -23 0 2 1 234196 40 6 
83429.8 445986 3.515 57134 2 -23 0 2 2 234196 268 6 
83429.8 445986 3.545 57134 2 -23 0 1 1 234196 362 6 
83429.6 445985 6.161 57134 2 -23 0 3 1 234196 33 6 
83429.7 445986 5.392 57134 2 -23 0 3 2 234196 79 6 
83429.7 445986 3.952 57134 2 -23 0 3 3 234196 49 6 
83429.6 445986 6.164 57134 2 -23 0 1 1 234196 272 6 
83429.6 445986 6.494 57134 2 -23 0 1 1 234196 120 6 
83429.5 445986 8.045 57134 2 -23 0 1 1 234196 262 6 
83429.5 445986 8.055 57134 2 -23 0 1 1 234196 439 6 
83429.5 445987 8.206 57134 2 -23 0 1 1 234196 86 6 
83429.5 445987 8.334 57134 2 -23 0 1 1 234196 74 6 
83429.4 445987 8.329 57134 2 -23 0 1 1 234196 75 6 
83429.4 445988 8.324 57134 2 -23 0 1 1 234196 73 6 
83429.4 445988 8.278 57134 2 -23 0 1 1 234196 140 6 
83429.4 445988 8.27 57134 2 -23 0 1 1 234196 106 6 
83429.4 445989 8.263 57134 2 -23 0 1 1 234196 100 6 
83429.4 445989 8.259 57134 2 -23 0 1 1 234196 102 6 
83429.3 445990 8.253 57134 2 -24 0 1 1 234196 96 6 
83429.3 445990 8.248 57134 2 -24 0 1 1 234196 96 6 
83429.3 445990 8.255 57134 2 -24 0 1 1 234196 107 6 
83429.3 445991 8.246 57134 2 -24 0 1 1 234196 81 6 
83429.3 445991 8.234 57134 2 -24 0 1 1 234196 102 6 
83429.3 445992 8.242 57134 2 -24 0 1 1 234196 91 6 
83429.3 445992 8.224 57134 2 -24 0 1 1 234196 74 6 
83429.2 445992 8.21 57134 2 -24 0 1 1 234196 100 6 
83429.2 445993 8.208 57134 2 -24 0 1 1 234196 120 6 
83429.2 445993 8.2 57134 2 -24 0 1 1 234196 113 6 
83429.2 445994 8.204 57134 2 -24 0 1 1 234196 128 6 
83429.2 445994 8.213 57134 2 -24 0 1 1 234196 65 6 
83429.2 445994 8.219 57134 2 -24 0 1 1 234196 101 6 
83429.1 445995 8.222 57134 2 -24 0 1 1 234196 88 6 
83429.1 445995 8.228 57134 2 -24 0 1 1 234196 89 6 
83429.1 445996 8.224 57134 2 -24 0 1 1 234196 106 6 
83429.1 445996 8.234 57134 2 -24 0 1 1 234196 95 6 
83429.1 445996 8.232 57134 2 -24 0 1 1 234196 88 6 
83429.1 445997 8.226 57134 2 -24 0 1 1 234196 85 6 
83429.1 445997 8.239 57134 2 -24 0 1 1 234196 120 6 
83429 445998 8.232 57134 2 -24 0 1 1 234196 121 6 
83429 445998 8.232 57134 2 -24 0 1 1 234196 113 6 
83429 445998 8.247 57134 2 -24 0 1 1 234196 91 6 
83429 445999 8.236 57134 2 -25 0 1 1 234196 92 6 
83429 445999 8.246 57134 2 -25 0 1 1 234196 99 6 
83429 446000 8.244 57134 2 -25 0 1 1 234196 110 6 
83428.9 446000 8.237 57134 2 -25 0 1 1 234196 101 6 
83428.9 446000 8.234 57134 2 -25 0 1 1 234196 86 6 
83428.9 446001 8.266 57134 2 -25 0 1 1 234196 78 6 
83428.9 446001 8.305 57134 2 -25 0 1 1 234196 71 6 
83428.9 446001 8.375 57134 2 -25 0 1 1 234196 195 6 
83428.9 446002 8.468 57134 2 -25 0 1 1 234196 165 6 
83428.8 446002 8.513 57134 2 -25 0 1 1 234196 177 6 
83428.8 446003 8.426 57134 2 -25 0 1 1 234196 142 6 
83428.8 446003 8.243 57134 2 -25 0 1 1 234196 95 6 
83428.8 446004 8.139 57134 2 -25 0 1 1 234196 84 6 
83428.8 446004 8.001 57134 2 -25 0 1 1 234196 93 6 
83428.8 446005 7.879 57134 2 -25 0 1 1 234196 116 6 
83428.8 446005 7.772 57134 2 -25 0 1 1 234196 124 6 
83428.8 446005 7.677 57134 2 -25 0 1 1 234196 92 6 
83428.8 446006 7.524 57134 2 -25 0 1 1 234196 101 6 
83428.7 446006 7.388 57134 2 -25 0 1 1 234196 93 6 
83428.7 446007 7.269 57134 2 -25 0 1 1 234196 108 6 
83428.7 446007 7.131 57134 2 -25 0 1 1 234196 116 6 
83428.7 446008 7.043 57134 2 -25 0 1 1 234196 99 6 
83428.7 446008 6.955 57134 2 -25 0 1 1 234196 99 6 
83428.7 446009 6.828 57134 2 -26 0 1 1 234196 98 6 
83428.7 446009 6.707 57134 2 -26 0 1 1 234196 102 6 
83428.7 446010 6.575 57134 2 -26 0 1 1 234196 102 6 
83428.7 446010 6.451 57134 2 -26 0 1 1 234196 80 6 
83428.6 446011 6.317 57134 2 -26 0 1 1 234196 96 6 
83428.6 446011 6.219 57134 2 -26 0 1 1 234196 102 6 
83428.6 446011 6.107 57134 2 -26 0 1 1 234196 100 6 
83428.6 446012 5.974 57134 2 -26 0 1 1 234196 73 6 
83428.6 446012 5.852 57134 2 -26 0 1 1 234196 81 6 
83428.6 446013 5.748 57134 2 -26 0 1 1 234196 75 6 
83428.6 446013 5.618 57134 2 -26 0 1 1 234196 81 6 
83428.6 446014 5.492 57134 2 -26 0 1 1 234196 99 6 
83428.6 446014 5.349 57134 2 -26 0 1 1 234196 82 6 
83428.5 446015 5.26 57134 2 -26 0 1 1 234196 65 6 
83428.5 446015 5.1 57134 2 -26 0 1 1 234196 14 6 
83428.5 446016 5.091 57134 2 -26 0 1 1 234196 81 6 
83428.5 446016 5.061 57134 2 -26 0 1 1 234196 111 6 
83428.5 446016 5.047 57134 2 -26 0 1 1 234196 50 6 
83428.5 446017 5.028 57134 2 -26 0 1 1 234196 65 6 
83428.5 446017 5.034 57134 2 -26 0 1 1 234196 162 6 
83428.4 446018 5.051 57134 2 -26 0 1 1 234196 172 6 
83428.4 446018 5.059 57134 2 -26 0 1 1 234196 215 6 
83428.4 446019 4.168 57134 2 -26 0 1 1 234196 79 6 
83428.4 446019 4.006 57134 2 -27 0 1 1 234196 93 6 
83428.4 446020 4.329 57134 2 -27 0 1 1 234196 28 6 
83428.4 446020 5.038 57134 2 -27 0 1 1 234196 69 6 
83428.3 446020 5.043 57134 2 -27 0 1 1 234196 184 6 
83428.3 446021 5.036 57134 2 -27 0 1 1 234196 181 6 
83428.3 446021 5.069 57134 2 -27 0 1 1 234196 96 6 
83428.3 446021 5.096 57134 2 -27 0 2 1 234196 12 6 
83428.4 446022 3.237 57134 2 -27 0 2 2 234196 67 6 
83428.3 446023 3.13 57134 2 -27 0 1 1 234196 112 6 
83428.3 446023 3.033 57134 2 -27 0 1 1 234196 77 6 
83428.3 446024 2.889 57134 2 -27 0 1 1 234196 76 6 
83428.3 446024 2.781 57134 2 -27 0 1 1 234196 87 6 
83428.3 446025 2.609 57134 2 -27 0 1 1 234196 202 6 
83428.3 446025 2.614 57134 2 -27 0 2 1 234196 83 6 
83430.7 445972 0.875 57134 2 -21 0 3 2 234196 119 6 
83430.7 445972 1.955 57134 2 -21 0 2 1 234196 132 6 
83430.6 445972 2.375 57134 2 -21 0 1 1 234196 274 6 
83430.6 445972 2.272 57134 2 -21 0 1 1 234196 265 6 
83430.6 445973 2.292 57134 2 -21 0 1 1 234196 159 6 
83430.6 445973 2.418 57134 2 -21 0 1 1 234196 394 6 
83430.6 445973 2.318 57134 2 -21 0 2 1 234196 137 6 
83430.6 445974 0.53 57134 2 -21 0 2 2 234196 8 6 
83430.5 445974 2.328 57134 2 -21 0 2 1 234196 154 6 
83430.5 445974 2.389 57134 2 -21 0 1 1 234196 442 6 
83430.5 445974 2.355 57134 2 -22 0 2 1 234196 122 6 
83430.5 445975 2.344 57134 2 -22 0 2 1 234196 129 6 
83430.5 445975 2.366 57134 2 -22 0 2 1 234196 157 6 
83430.5 445976 2.456 57134 2 -22 0 1 1 234196 396 6 
83430.5 445976 2.422 57134 2 -22 0 1 1 234196 181 6 
83430.4 445976 2.437 57134 2 -22 0 1 1 234196 165 6 
83430.4 445977 2.494 57134 2 -22 0 1 1 234196 459 6 
83430.4 445978 2.162 57134 2 -22 0 2 1 234196 17 6 
83430.4 445978 2.263 57134 2 -22 0 1 1 234196 211 6 
83430.4 445978 2.291 57134 2 -22 0 1 1 234196 242 6 
83430.4 445979 2.318 57134 2 -22 0 1 1 234196 253 6 
83430.3 445979 2.33 57134 2 -22 0 1 1 234196 211 6 
83430.3 445980 2.365 57134 2 -22 0 1 1 234196 248 6 
83430.3 445980 2.396 57134 2 -22 0 1 1 234196 237 6 
83430.3 445980 2.431 57134 2 -22 0 1 1 234196 253 6 
83430.3 445981 2.459 57134 2 -22 0 1 1 234196 213 6 
83430.3 445981 2.5 57134 2 -22 0 1 1 234196 209 6 
83430.2 445981 2.536 57134 2 -22 0 1 1 234196 251 6 
83430.2 445982 2.571 57134 2 -22 0 1 1 234196 198 6 
83430.2 445983 2.117 57134 2 -22 0 2 1 234196 55 6 
83430.2 445984 2.112 57134 2 -23 0 3 1 234196 57 6 
83430.2 445984 0.674 57134 2 -23 0 3 2 234196 23 6 
83430.1 445984 2.688 57134 2 -23 0 1 1 234196 303 6 
83430.1 445984 2.739 57134 2 -23 0 1 1 234196 451 6 
83430.1 445984 2.807 57134 2 -23 0 1 1 234196 216 6 
83430.1 445985 3.533 57134 2 -23 0 1 1 234196 139 6 
83430 445984 5.351 57134 2 -23 0 2 1 234196 204 6 
83430 445985 3.876 57134 2 -23 0 2 2 234196 54 6 
83430 445985 4.735 57134 2 -23 0 1 1 234196 136 6 
83429.9 445985 6.195 57134 2 -23 0 2 1 234196 18 6 
83429.9 445985 5.279 57134 2 -23 0 2 2 234196 112 6 
83429.9 445985 6.176 57134 2 -23 0 1 1 234196 292 6 
83429.9 445985 6.175 57134 2 -23 0 1 1 234196 330 6 
83429.8 445986 6.562 57134 2 -23 0 1 1 234196 162 6 
83429.8 445986 7.517 57134 2 -23 0 1 1 234196 152 6 
83429.8 445986 8.145 57134 2 -23 0 1 1 234196 177 6 
83429.7 445986 8.327 57134 2 -23 0 1 1 234196 82 6 
83429.7 445986 8.328 57134 2 -23 0 1 1 234196 78 6 
83429.7 445987 8.312 57134 2 -23 0 1 1 234196 59 6 
83429.7 445987 8.256 57134 2 -23 0 1 1 234196 81 6 
83429.7 445988 8.257 57134 2 -23 0 1 1 234196 119 6 
83429.7 445988 8.26 57134 2 -23 0 1 1 234196 117 6 
83429.6 445988 8.27 57134 2 -23 0 1 1 234196 110 6 
83429.6 445989 8.27 57134 2 -23 0 1 1 234196 72 6 
83429.6 445989 8.262 57134 2 -23 0 1 1 234196 82 6 
83429.6 445990 8.258 57134 2 -23 0 1 1 234196 127 6 
83429.6 445990 8.253 57134 2 -24 0 1 1 234196 90 6 
83429.6 445990 8.249 57134 2 -24 0 1 1 234196 99 6 
83429.6 445991 8.256 57134 2 -24 0 1 1 234196 111 6 
83429.5 445991 8.255 57134 2 -24 0 1 1 234196 81 6 
83429.5 445991 8.242 57134 2 -24 0 1 1 234196 116 6 
83429.5 445992 8.235 57134 2 -24 0 1 1 234196 86 6 
83429.5 445992 8.209 57134 2 -24 0 1 1 234196 86 6 
83429.5 445993 8.208 57134 2 -24 0 1 1 234196 117 6 
83429.5 445993 8.21 57134 2 -24 0 1 1 234196 120 6 
83429.4 445993 8.2 57134 2 -24 0 1 1 234196 139 6 
83429.4 445994 8.202 57134 2 -24 0 1 1 234196 98 6 
83429.4 445994 8.215 57134 2 -24 0 1 1 234196 95 6 
83429.4 445995 8.214 57134 2 -24 0 1 1 234196 73 6 
83429.4 445995 8.229 57134 2 -24 0 1 1 234196 119 6 
83429.4 445995 8.221 57134 2 -24 0 1 1 234196 100 6 
83429.4 445996 8.239 57134 2 -24 0 1 1 234196 74 6 
83429.3 445996 8.234 57134 2 -24 0 1 1 234196 127 6 
83429.3 445997 8.247 57134 2 -24 0 1 1 234196 100 6 
83429.3 445997 8.236 57134 2 -24 0 1 1 234196 95 6 
83429.3 445997 8.238 57134 2 -24 0 1 1 234196 99 6 
83429.3 445998 8.242 57134 2 -24 0 1 1 234196 106 6 
83429.3 445998 8.244 57134 2 -24 0 1 1 234196 78 6 
83429.2 445999 8.251 57134 2 -24 0 1 1 234196 76 6 
83429.2 445999 8.24 57134 2 -25 0 1 1 234196 85 6 
83429.2 445999 8.239 57134 2 -25 0 1 1 234196 74 6 
83429.2 446000 8.255 57134 2 -25 0 1 1 234196 86 6 
83429.2 446000 8.297 57134 2 -25 0 1 1 234196 76 6 
83429.2 446001 8.373 57134 2 -25 0 1 1 234196 198 6 
83429.1 446001 8.479 57134 2 -25 0 1 1 234196 207 6 
83429.1 446001 8.501 57134 2 -25 0 1 1 234196 170 6 
83429.1 446002 8.407 57134 2 -25 0 1 1 234196 153 6 
83429.1 446002 8.255 57134 2 -25 0 1 1 234196 98 6 
83429.1 446003 8.128 57134 2 -25 0 1 1 234196 115 6 
83429.1 446003 8.005 57134 2 -25 0 1 1 234196 96 6 
83429.1 446004 7.889 57134 2 -25 0 1 1 234196 101 6 
83429.1 446004 7.773 57134 2 -25 0 1 1 234196 89 6 
83429 446004 7.726 57134 2 -25 0 1 1 234196 55 6 
83429 446005 7.566 57134 2 -25 0 2 1 234196 17 6 
83429 446005 7.391 57134 2 -25 0 1 1 234196 81 6 
83429 446006 7.256 57134 2 -25 0 1 1 234196 108 6 
83429 446006 7.143 57134 2 -25 0 1 1 234196 93 6 
83429 446007 6.994 57134 2 -25 0 1 1 234196 96 6 
83429 446007 6.894 57134 2 -25 0 1 1 234196 90 6 
83429 446008 6.771 57134 2 -25 0 1 1 234196 107 6 
83429 446008 6.698 57134 2 -25 0 1 1 234196 79 6 
83428.9 446009 6.566 57134 2 -25 0 1 1 234196 93 6 
83428.9 446009 6.482 57134 2 -26 0 1 1 234196 82 6 
83428.9 446010 6.346 57134 2 -26 0 1 1 234196 91 6 
83428.9 446010 6.23 57134 2 -26 0 1 1 234196 91 6 
83428.9 446011 6.083 57134 2 -26 0 1 1 234196 96 6 
83428.9 446011 5.974 57134 2 -26 0 1 1 234196 86 6 
83428.9 446011 5.83 57134 2 -26 0 1 1 234196 88 6 
83428.9 446012 5.732 57134 2 -26 0 1 1 234196 89 6 
83428.9 446012 5.629 57134 2 -26 0 1 1 234196 81 6 
83428.8 446013 5.508 57134 2 -26 0 1 1 234196 67 6 
83428.8 446013 5.583 57134 2 -26 0 1 1 234196 10 6 
83428.8 446014 5.237 57134 2 -26 0 1 1 234196 77 6 
83428.8 446014 5.111 57134 2 -26 0 1 1 234196 88 6 
83428.8 446015 4.987 57134 2 -26 0 1 1 234196 83 6 
83428.8 446015 4.989 57134 2 -26 0 1 1 234196 21 6 
83428.8 446015 5.039 57134 2 -26 0 1 1 234196 41 6 
83428.8 446016 5.052 57134 2 -26 0 1 1 234196 78 6 
83428.7 446016 5.035 57134 2 -26 0 1 1 234196 70 6 
83428.7 446017 5.042 57134 2 -26 0 1 1 234196 126 6 
83428.7 446017 5.034 57134 2 -26 0 1 1 234196 157 6 
83428.7 446018 5.053 57134 2 -26 0 1 1 234196 149 6 
83428.7 446018 5.05 57134 2 -26 0 1 1 234196 116 6 
83428.7 446018 5.087 57134 2 -26 0 2 1 234196 62 6 
83428.7 446019 3.749 57134 2 -26 0 2 2 234196 10 6 
83428.7 446019 3.764 57134 2 -26 0 1 1 234196 80 6 
83428.7 446020 3.723 57134 2 -27 0 1 1 234196 35 6 
83428.6 446020 4.71 57134 2 -27 0 1 1 234196 27 6 
83428.6 446020 5.071 57134 2 -27 0 1 1 234196 78 6 
83428.6 446020 5.094 57134 2 -27 0 2 1 234196 9 6 
83428.6 446021 3.225 57134 2 -27 0 2 2 234196 82 6 
83428.6 446022 3.121 57134 2 -27 0 1 1 234196 80 6 
83428.6 446022 2.993 57134 2 -27 0 1 1 234196 87 6 
83428.6 446023 2.9 57134 2 -27 0 1 1 234196 82 6 
83428.6 446023 2.775 57134 2 -27 0 1 1 234196 103 6 
83428.6 446024 2.606 57134 2 -27 0 1 1 234196 219 6 
83428.6 446024 2.62 57134 2 -27 0 2 1 234196 105 6 
83431 445972 2.42 57134 2 -21 0 1 1 234196 237 6 
83431 445972 2.336 57134 2 -21 0 2 1 234196 153 6 
83431 445972 2.34 57134 2 -21 0 1 1 234196 139 6 
83431 445973 2.344 57134 2 -21 0 1 1 234196 181 6 
83430.9 445973 2.353 57134 2 -21 0 1 1 234196 145 6 
83430.9 445974 2.35 57134 2 -21 0 2 1 234196 117 6 
83430.9 445974 2.392 57134 2 -21 0 1 1 234196 251 6 
83430.9 445974 2.493 57134 2 -22 0 1 1 234196 556 6 
83430.9 445975 2.432 57134 2 -22 0 1 1 234196 170 6 
83430.9 445975 2.43 57134 2 -22 0 2 1 234196 154 6 
83430.8 445975 2.449 57134 2 -22 0 1 1 234196 206 6 
83430.8 445976 2.46 57134 2 -22 0 2 1 234196 129 6 
83430.8 445976 2.471 57134 2 -22 0 2 1 234196 121 6 
83430.8 445977 2.443 57134 2 -22 0 1 1 234196 132 6 
83430.8 445977 2.554 57134 2 -22 0 1 1 234196 272 6 
83430.8 445978 2.365 57134 2 -22 0 1 1 234196 224 6 
83430.7 445978 2.388 57134 2 -22 0 1 1 234196 227 6 
83430.7 445979 2.417 57134 2 -22 0 1 1 234196 224 6 
83430.7 445979 2.438 57134 2 -22 0 1 1 234196 216 6 
83430.7 445979 2.472 57134 2 -22 0 1 1 234196 248 6 
83430.7 445980 2.502 57134 2 -22 0 1 1 234196 235 6 
83430.7 445980 2.536 57134 2 -22 0 1 1 234196 198 6 
83430.6 445980 2.56 57134 2 -22 0 1 1 234196 202 6 
83430.6 445981 2.601 57134 2 -22 0 1 1 234196 218 6 
83430.6 445981 2.638 57134 2 -22 0 1 1 234196 254 6 
83430.6 445982 2.67 57134 2 -22 0 1 1 234196 259 6 
83430.6 445982 2.724 57134 2 -22 0 2 1 234196 64 6 
83430.6 445982 1.733 57134 2 -22 0 2 2 234196 84 6 
83430.6 445982 2.668 57134 2 -22 0 2 1 234196 71 6 
83430.6 445983 1.637 57134 2 -22 0 2 2 234196 23 6 
83430.5 445982 3.71 57134 2 -22 0 2 1 234196 19 6 
83430.5 445983 2.743 57134 2 -22 0 2 2 234196 321 6 
83430.5 445983 3.375 57134 2 -23 0 2 1 234196 84 6 
83430.5 445983 2.391 57134 2 -23 0 2 2 234196 65 6 
83430.5 445983 4.125 57134 2 -23 0 2 1 234196 42 6 
83430.5 445983 3.521 57134 2 -23 0 2 2 234196 221 6 
83430.4 445983 5.059 57134 2 -23 0 2 1 234196 30 6 
83430.5 445984 3.63 57134 2 -23 0 2 2 234196 230 6 
83430.4 445983 5.372 57134 2 -23 0 1 1 234196 421 6 
83430.3 445983 6.164 57134 2 -23 0 2 1 234196 166 6 
83430.4 445984 5.493 57134 2 -23 0 2 2 234196 88 6 
83430.3 445984 6.171 57134 2 -23 0 1 1 234196 343 6 
83430.2 445983 8.046 57134 2 -23 0 3 1 234196 261 6 
83430.3 445984 6.196 57134 2 -23 0 3 2 234196 123 6 
83430.4 445985 4.837 57134 2 -23 0 3 3 234196 7 6 
83430.2 445984 8.055 57134 2 -23 0 1 1 234196 513 6 
83430.2 445984 8.065 57134 2 -23 0 1 1 234196 358 6 
83430.2 445984 8.283 57134 2 -23 0 1 1 234196 84 6 
83430.2 445985 8.327 57134 2 -23 0 1 1 234196 152 6 
83430.1 445985 8.317 57134 2 -23 0 1 1 234196 77 6 
83430.1 445985 8.267 57134 2 -23 0 1 1 234196 81 6 
83430.1 445986 8.229 57134 2 -23 0 1 1 234196 79 6 
83430.1 445986 8.249 57134 2 -23 0 1 1 234196 91 6 
83430.1 445987 8.243 57134 2 -23 0 1 1 234196 124 6 
83430.1 445987 8.247 57134 2 -23 0 1 1 234196 118 6 
83430.1 445987 8.247 57134 2 -23 0 1 1 234196 77 6 
83430 445988 8.255 57134 2 -23 0 1 1 234196 100 6 
83430 445988 8.251 57134 2 -23 0 1 1 234196 85 6 
83430 445989 8.256 57134 2 -23 0 1 1 234196 88 6 
83430 445989 8.245 57134 2 -23 0 1 1 234196 90 6 
83430 445989 8.26 57134 2 -23 0 1 1 234196 106 6 
83430 445990 8.259 57134 2 -24 0 1 1 234196 95 6 
83429.9 445990 8.244 57134 2 -24 0 1 1 234196 74 6 
83429.9 445991 8.241 57134 2 -24 0 1 1 234196 95 6 
83429.9 445991 8.242 57134 2 -24 0 1 1 234196 80 6 
83429.9 445991 8.255 57134 2 -24 0 1 1 234196 74 6 
83429.9 445992 8.234 57134 2 -24 0 1 1 234196 93 6 
83429.9 445992 8.212 57134 2 -24 0 1 1 234196 90 6 
83429.9 445993 8.209 57134 2 -24 0 1 1 234196 106 6 
83429.8 445993 8.2 57134 2 -24 0 1 1 234196 121 6 
83429.8 445993 8.202 57134 2 -24 0 1 1 234196 140 6 
83429.8 445994 8.199 57134 2 -24 0 1 1 234196 139 6 
83429.8 445994 8.192 57134 2 -24 0 1 1 234196 76 6 
83429.8 445995 8.218 57134 2 -24 0 1 1 234196 89 6 
83429.8 445995 8.216 57134 2 -24 0 1 1 234196 76 6 
83429.7 445995 8.231 57134 2 -24 0 1 1 234196 82 6 
83429.7 445996 8.222 57134 2 -24 0 1 1 234196 109 6 
83429.7 445996 8.231 57134 2 -24 0 1 1 234196 105 6 
83429.7 445996 8.23 57134 2 -24 0 1 1 234196 95 6 
83429.7 445997 8.248 57134 2 -24 0 1 1 234196 75 6 
83429.7 445997 8.241 57134 2 -24 0 1 1 234196 112 6 
83429.7 445998 8.241 57134 2 -24 0 1 1 234196 84 6 
83429.6 445998 8.262 57134 2 -24 0 1 1 234196 71 6 
83429.6 445998 8.259 57134 2 -24 0 1 1 234196 79 6 
83429.6 445999 8.337 57134 2 -25 0 1 1 234196 116 6 
83429.6 445999 8.417 57134 2 -25 0 1 1 234196 231 6 
83429.6 446000 8.5 57134 2 -25 0 1 1 234196 201 6 
83429.6 446000 8.49 57134 2 -25 0 1 1 234196 167 6 
83429.5 446000 8.343 57134 2 -25 0 1 1 234196 105 6 
83429.5 446001 8.213 57134 2 -25 0 1 1 234196 91 6 
83429.5 446001 8.067 57134 2 -25 0 1 1 234196 119 6 
83429.5 446002 7.938 57134 2 -25 0 1 1 234196 92 6 
83429.5 446002 7.81 57134 2 -25 0 1 1 234196 97 6 
83429.5 446003 7.705 57134 2 -25 0 1 1 234196 112 6 
83429.5 446003 7.589 57134 2 -25 0 1 1 234196 97 6 
83429.5 446004 7.5 57134 2 -25 0 1 1 234196 92 6 
83429.5 446004 7.421 57134 2 -25 0 1 1 234196 55 6 
83429.4 446005 7.139 57134 2 -25 0 2 1 234196 10 6 
83429.4 446005 7.073 57134 2 -25 0 2 1 234196 19 6 
83429.4 446005 6.993 57134 2 -25 0 1 1 234196 59 6 
83429.4 446006 6.848 57134 2 -25 0 1 1 234196 89 6 
83429.4 446006 6.735 57134 2 -25 0 1 1 234196 92 6 
83429.4 446007 6.595 57134 2 -25 0 1 1 234196 90 6 
83429.4 446007 6.512 57134 2 -25 0 1 1 234196 101 6 
83429.4 446008 6.386 57134 2 -25 0 1 1 234196 102 6 
83429.4 446008 6.29 57134 2 -25 0 1 1 234196 96 6 
83429.3 446009 6.167 57134 2 -25 0 1 1 234196 111 6 
83429.3 446009 6.063 57134 2 -26 0 1 1 234196 90 6 
83429.3 446010 5.936 57134 2 -26 0 1 1 234196 90 6 
83429.3 446010 5.81 57134 2 -26 0 1 1 234196 87 6 
83429.3 446011 5.7 57134 2 -26 0 1 1 234196 90 6 
83429.3 446011 5.577 57134 2 -26 0 1 1 234196 91 6 
83429.3 446012 5.445 57134 2 -26 0 1 1 234196 87 6 
83429.3 446012 5.342 57134 2 -26 0 1 1 234196 103 6 
83429.3 446012 5.237 57134 2 -26 0 1 1 234196 85 6 
83429.2 446013 5.08 57134 2 -26 0 1 1 234196 93 6 
83429.2 446013 5.022 57134 2 -26 0 1 1 234196 42 6 
83429.2 446014 4.871 57134 2 -26 0 1 1 234196 86 6 
83429.2 446014 4.674 57134 2 -26 0 1 1 234196 86 6 
83429.2 446015 4.562 57134 2 -26 0 1 1 234196 80 6 
83429.2 446015 4.488 57134 2 -26 0 1 1 234196 67 6 
83429.1 446015 5.045 57134 2 -26 0 1 1 234196 93 6 
83429.1 446016 5.051 57134 2 -26 0 1 1 234196 113 6 
83429.1 446016 5.029 57134 2 -26 0 1 1 234196 119 6 
83429.1 446017 5.045 57134 2 -26 0 1 1 234196 117 6 
83429.1 446017 5.036 57134 2 -26 0 1 1 234196 157 6 
83429.1 446017 5.036 57134 2 -26 0 1 1 234196 105 6 
83429.1 446018 5.036 57134 2 -26 0 1 1 234196 77 6 
83429 446018 5.057 57134 2 -26 0 1 1 234196 77 6 
83429.1 446020 3.343 57134 2 -26 0 1 1 234196 71 6 
83429.1 446020 3.218 57134 2 -27 0 1 1 234196 89 6 
83429.1 446020 3.105 57134 2 -27 0 1 1 234196 85 6 
83429.1 446021 2.985 57134 2 -27 0 1 1 234196 90 6 
83429 446021 2.857 57134 2 -27 0 1 1 234196 93 6 
83429 446022 2.731 57134 2 -27 0 1 1 234196 103 6 
83429 446022 2.605 57134 2 -27 0 1 1 234196 257 6 
83429 446023 2.628 57134 2 -27 0 2 1 234196 37 6 
83431.5 445972 0.646 57134 2 -21 0 1 1 234196 124 6 
83431.4 445972 1.734 57134 2 -21 0 2 1 234196 80 6 
83431.4 445972 2.491 57134 2 -21 0 1 1 234196 470 6 
83431.4 445972 2.405 57134 2 -21 0 1 1 234196 240 6 
83431.4 445973 2.434 57134 2 -21 0 1 1 234196 240 6 
83431.4 445973 2.488 57134 2 -21 0 1 1 234196 603 6 
83431.3 445973 2.446 57134 2 -21 0 2 1 234196 130 6 
83431.3 445974 2.445 57134 2 -21 0 2 1 234196 191 6 
83431.3 445974 2.454 57134 2 -22 0 2 1 234196 184 6 
83431.3 445975 2.457 57134 2 -22 0 2 1 234196 139 6 
83431.3 445975 2.465 57134 2 -22 0 2 1 234196 135 6 
83431.3 445975 2.465 57134 2 -22 0 2 1 234196 135 6 
83431.2 445976 2.565 57134 2 -22 0 1 1 234196 507 6 
83431.2 445976 2.528 57134 2 -22 0 1 1 234196 193 6 
83431.2 445976 2.57 57134 2 -22 0 1 1 234196 279 6 
83431.2 445977 2.545 57134 2 -22 0 1 1 234196 129 6 
83431.3 445978 0.618 57134 2 -22 0 2 1 234196 40 6 
83431.3 445978 0.589 57134 2 -22 0 1 1 234196 30 6 
83431.2 445978 2.513 57134 2 -22 0 1 1 234196 207 6 
83431.1 445978 2.538 57134 2 -22 0 1 1 234196 170 6 
83431.1 445979 2.563 57134 2 -22 0 1 1 234196 204 6 
83431.1 445979 2.596 57134 2 -22 0 1 1 234196 235 6 
83431.1 445980 2.62 57134 2 -22 0 1 1 234196 222 6 
83431.1 445980 2.656 57134 2 -22 0 1 1 234196 212 6 
83431.1 445980 2.696 57134 2 -22 0 1 1 234196 259 6 
83431 445981 2.766 57134 2 -22 0 1 1 234196 561 6 
83431 445981 2.777 57134 2 -22 0 2 1 234196 400 6 
83431.1 445981 2.137 57134 2 -22 0 2 2 234196 150 6 
83431 445982 2.541 57134 2 -22 0 1 1 234196 102 6 
83431 445981 3.565 57134 2 -22 0 2 1 234196 142 6 
83431 445982 3.019 57134 2 -22 0 2 2 234196 84 6 
83430.9 445982 3.803 57134 2 -22 0 1 1 234196 184 6 
83430.9 445982 4.769 57134 2 -22 0 1 1 234196 139 6 
83430.8 445982 6.153 57134 2 -23 0 2 1 234196 212 6 
83430.8 445982 5.522 57134 2 -23 0 2 2 234196 69 6 
83430.8 445982 6.263 57134 2 -23 0 1 1 234196 121 6 
83430.8 445982 6.822 57134 2 -23 0 1 1 234196 118 6 
83430.7 445982 7.413 57134 2 -23 0 1 1 234196 110 6 
83430.7 445982 8.115 57134 2 -23 0 1 1 234196 102 6 
83430.7 445983 8.323 57134 2 -23 0 1 1 234196 94 6 
83430.6 445983 8.32 57134 2 -23 0 1 1 234196 76 6 
83430.6 445983 8.318 57134 2 -23 0 1 1 234196 60 6 
83430.6 445984 8.26 57134 2 -23 0 1 1 234196 80 6 
83430.6 445984 8.236 57134 2 -23 0 1 1 234196 81 6 
83430.6 445985 8.224 57134 2 -23 0 1 1 234196 127 6 
83430.6 445985 8.225 57134 2 -23 0 1 1 234196 105 6 
83430.5 445985 8.24 57134 2 -23 0 1 1 234196 101 6 
83430.5 445986 8.243 57134 2 -23 0 1 1 234196 117 6 
83430.5 445986 8.245 57134 2 -23 0 1 1 234196 89 6 
83430.5 445987 8.237 57134 2 -23 0 1 1 234196 77 6 
83430.5 445987 8.246 57134 2 -23 0 1 1 234196 103 6 
83430.5 445987 8.251 57134 2 -23 0 1 1 234196 95 6 
83430.5 445988 8.255 57134 2 -23 0 1 1 234196 98 6 
83430.4 445988 8.255 57134 2 -23 0 1 1 234196 76 6 
83430.4 445989 8.257 57134 2 -23 0 1 1 234196 95 6 
83430.4 445989 8.248 57134 2 -23 0 1 1 234196 91 6 
83430.4 445989 8.246 57134 2 -23 0 1 1 234196 66 6 
83430.4 445990 8.245 57134 2 -24 0 1 1 234196 95 6 
83430.4 445990 8.263 57134 2 -24 0 1 1 234196 75 6 
83430.4 445990 8.251 57134 2 -24 0 1 1 234196 89 6 
83430.3 445991 8.239 57134 2 -24 0 1 1 234196 69 6 
83430.3 445991 8.234 57134 2 -24 0 1 1 234196 83 6 
83430.3 445992 8.235 57134 2 -24 0 1 1 234196 83 6 
83430.3 445992 8.224 57134 2 -24 0 1 1 234196 90 6 
83430.3 445992 8.221 57134 2 -24 0 1 1 234196 81 6 
83430.3 445993 8.207 57134 2 -24 0 1 1 234196 116 6 
83430.2 445993 8.204 57134 2 -24 0 1 1 234196 113 6 
83430.2 445994 8.196 57134 2 -24 0 1 1 234196 127 6 
83430.2 445994 8.214 57134 2 -24 0 1 1 234196 103 6 
83430.2 445994 8.205 57134 2 -24 0 1 1 234196 91 6 
83430.2 445995 8.223 57134 2 -24 0 1 1 234196 84 6 
83430.2 445995 8.224 57134 2 -24 0 1 1 234196 79 6 
83430.2 445996 8.229 57134 2 -24 0 1 1 234196 74 6 
83430.1 445996 8.219 57134 2 -24 0 1 1 234196 72 6 
83430.1 445996 8.237 57134 2 -24 0 1 1 234196 80 6 
83430.1 445997 8.24 57134 2 -24 0 1 1 234196 69 6 
83430.1 445997 8.314 57134 2 -24 0 1 1 234196 110 6 
83430.1 445998 8.399 57134 2 -24 0 1 1 234196 200 6 
83430.1 445998 8.49 57134 2 -24 0 1 1 234196 235 6 
83430 445998 8.506 57134 2 -24 0 1 1 234196 224 6 
83430 445999 8.362 57134 2 -25 0 1 1 234196 105 6 
83430 445999 8.22 57134 2 -25 0 1 1 234196 102 6 
83430 446000 8.069 57134 2 -25 0 1 1 234196 124 6 
83430 446000 7.978 57134 2 -25 0 1 1 234196 88 6 
83430 446001 7.833 57134 2 -25 0 1 1 234196 97 6 
83430 446001 7.727 57134 2 -25 0 1 1 234196 96 6 
83430 446001 7.612 57134 2 -25 0 1 1 234196 84 6 
83430 446002 7.471 57134 2 -25 0 1 1 234196 99 6 
83429.9 446002 7.34 57134 2 -25 0 1 1 234196 119 6 
83429.9 446003 7.239 57134 2 -25 0 1 1 234196 96 6 
83429.9 446003 7.121 57134 2 -25 0 1 1 234196 108 6 
83429.9 446004 7.004 57134 2 -25 0 1 1 234196 101 6 
83429.9 446004 6.856 57134 2 -25 0 1 1 234196 107 6 
83429.9 446005 6.771 57134 2 -25 0 1 1 234196 97 6 
83429.9 446005 6.65 57134 2 -25 0 1 1 234196 77 6 
83429.9 446006 6.52 57134 2 -25 0 1 1 234196 107 6 
83429.9 446006 6.395 57134 2 -25 0 1 1 234196 96 6 
83429.8 446007 6.272 57134 2 -25 0 1 1 234196 106 6 
83429.8 446007 6.157 57134 2 -25 0 1 1 234196 94 6 
83429.8 446007 6.035 57134 2 -25 0 1 1 234196 90 6 
83429.8 446008 5.936 57134 2 -25 0 1 1 234196 82 6 
83429.8 446008 5.84 57134 2 -25 0 1 1 234196 87 6 
83429.8 446009 5.729 57134 2 -25 0 1 1 234196 112 6 
83429.8 446009 5.597 57134 2 -26 0 1 1 234196 95 6 
83429.8 446010 5.485 57134 2 -26 0 1 1 234196 86 6 
83429.8 446010 5.363 57134 2 -26 0 1 1 234196 97 6 
83429.7 446011 5.255 57134 2 -26 0 1 1 234196 88 6 
83429.7 446011 5.098 57134 2 -26 0 1 1 234196 85 6 
83429.7 446012 5.041 57134 2 -26 0 1 1 234196 89 6 
83429.7 446012 5.035 57134 2 -26 0 1 1 234196 97 6 
83429.7 446012 5.052 57134 2 -26 0 1 1 234196 103 6 
83429.7 446013 4.619 57134 2 -26 0 1 1 234196 99 6 
83429.7 446014 4.481 57134 2 -26 0 1 1 234196 103 6 
83429.7 446014 4.367 57134 2 -26 0 1 1 234196 89 6 
83429.7 446014 4.298 57134 2 -26 0 1 1 234196 68 6 
83429.6 446015 4.145 57134 2 -26 0 1 1 234196 68 6 
83429.6 446015 4.032 57134 2 -26 0 1 1 234196 64 6 
83429.6 446015 4.808 57134 2 -26 0 1 1 234196 41 6 
83429.6 446016 5.042 57134 2 -26 0 1 1 234196 112 6 
83429.5 446016 5.033 57134 2 -26 0 1 1 234196 101 6 
83429.5 446017 5.052 57134 2 -26 0 1 1 234196 139 6 
83429.5 446017 5.076 57134 2 -26 0 2 1 234196 55 6 
83429.6 446018 3.312 57134 2 -26 0 2 2 234196 9 6 
83429.6 446018 3.221 57134 2 -26 0 1 1 234196 88 6 
83429.6 446019 3.138 57134 2 -26 0 1 1 234196 88 6 
83429.5 446019 3.02 57134 2 -26 0 1 1 234196 99 6 
83429.5 446020 2.9 57134 2 -26 0 1 1 234196 85 6 
83429.5 446020 2.78 57134 2 -27 0 1 1 234196 98 6 
83429.5 446021 2.618 57134 2 -27 0 1 1 234196 170 6 
83429.5 446021 2.626 57134 2 -27 0 2 1 234196 84 6 
83432 445970 0.596 57134 2 -21 0 1 1 234196 237 6 
83431.9 445970 1.707 57134 2 -21 0 1 1 234196 202 6 
83431.9 445972 0.348 57134 2 -21 0 1 1 234196 84 6 
83431.9 445972 1.27 57134 2 -21 0 1 1 234196 253 6 
83431.8 445972 2.224 57134 2 -21 0 1 1 234196 202 6 
83431.8 445972 2.461 57134 2 -21 0 1 1 234196 181 6 
83431.8 445973 2.454 57134 2 -21 0 1 1 234196 120 6 
83431.7 445973 2.464 57134 2 -21 0 1 1 234196 140 6 
83431.7 445973 2.482 57134 2 -21 0 2 1 234196 170 6 
83431.7 445974 2.473 57134 2 -21 0 1 1 234196 143 6 
83431.7 445974 2.476 57134 2 -22 0 1 1 234196 132 6 
83431.7 445974 2.53 57134 2 -22 0 1 1 234196 330 6 
83431.7 445975 2.565 57134 2 -22 0 1 1 234196 263 6 
83431.6 445975 2.565 57134 2 -22 0 1 1 234196 162 6 
83431.6 445976 2.558 57134 2 -22 0 2 1 234196 146 6 
83431.7 445976 0.731 57134 2 -22 0 2 2 234196 7 6 
83431.6 445976 2.575 57134 2 -22 0 2 1 234196 145 6 
83431.7 445977 0.866 57134 2 -22 0 2 2 234196 10 6 
83431.6 445976 2.589 57134 2 -22 0 2 1 234196 119 6 
83431.7 445977 1.344 57134 2 -22 0 2 2 234196 8 6 
83431.6 445977 2.597 57134 2 -22 0 2 1 234196 111 6 
83431.6 445977 1.513 57134 2 -22 0 2 2 234196 11 6 
83431.6 445977 2.626 57134 2 -22 0 1 1 234196 355 6 
83431.5 445978 2.529 57134 2 -22 0 2 1 234196 10 6 
83431.5 445978 2.645 57134 2 -22 0 1 1 234196 172 6 
83431.5 445979 2.683 57134 2 -22 0 1 1 234196 236 6 
83431.5 445979 2.734 57134 2 -22 0 1 1 234196 403 6 
83431.5 445979 2.753 57134 2 -22 0 1 1 234196 578 6 
83431.5 445980 2.881 57134 2 -22 0 1 1 234196 237 6 
83431.4 445980 3.528 57134 2 -22 0 1 1 234196 124 6 
83431.4 445980 4.175 57134 2 -22 0 1 1 234196 140 6 
83431.3 445980 4.764 57134 2 -22 0 2 1 234196 116 6 
83431.3 445980 6.192 57134 2 -22 0 4 1 234196 61 6 
83431.3 445980 5.431 57134 2 -22 0 4 2 234196 135 6 
83431.4 445981 3.644 57134 2 -22 0 4 3 234196 20 6 
83431.2 445980 6.154 57134 2 -22 0 1 1 234196 354 6 
83431.2 445981 6.198 57134 2 -22 0 1 1 234196 472 6 
83431.2 445981 6.289 57134 2 -22 0 2 1 234196 765 6 
83431.4 445982 2.926 57134 2 -22 0 2 2 234196 7 6 
83431.1 445981 8.009 57134 2 -23 0 3 1 234196 21 6 
83431.2 445981 7.262 57134 2 -23 0 3 2 234196 35 6 
83431.2 445981 6.182 57134 2 -23 0 3 3 234196 124 6 
83431.1 445981 8.308 57134 2 -23 0 1 1 234196 127 6 
83431.1 445981 8.347 57134 2 -23 0 1 1 234196 132 6 
83431.1 445982 8.329 57134 2 -23 0 1 1 234196 142 6 
83431.1 445982 8.293 57134 2 -23 0 1 1 234196 115 6 
83431 445983 8.227 57134 2 -23 0 1 1 234196 157 6 
83431 445983 8.224 57134 2 -23 0 1 1 234196 272 6 
83431 445983 8.221 57134 2 -23 0 1 1 234196 92 6 
83431 445984 8.219 57134 2 -23 0 1 1 234196 123 6 
83431 445984 8.232 57134 2 -23 0 1 1 234196 85 6 
83431 445985 8.242 57134 2 -23 0 1 1 234196 62 6 
83430.9 445985 8.224 57134 2 -23 0 1 1 234196 85 6 
83430.9 445985 8.229 57134 2 -23 0 1 1 234196 101 6 
83430.9 445986 8.245 57134 2 -23 0 1 1 234196 63 6 
83430.9 445986 8.243 57134 2 -23 0 1 1 234196 83 6 
83430.9 445986 8.246 57134 2 -23 0 1 1 234196 74 6 
83430.9 445987 8.244 57134 2 -23 0 1 1 234196 113 6 
83430.9 445987 8.248 57134 2 -23 0 1 1 234196 84 6 
83430.8 445988 8.245 57134 2 -23 0 1 1 234196 103 6 
83430.8 445988 8.246 57134 2 -23 0 1 1 234196 72 6 
83430.8 445988 8.247 57134 2 -23 0 1 1 234196 106 6 
83430.8 445989 8.242 57134 2 -23 0 1 1 234196 81 6 
83430.8 445989 8.249 57134 2 -23 0 1 1 234196 87 6 
83430.8 445990 8.242 57134 2 -24 0 1 1 234196 97 6 
83430.8 445990 8.252 57134 2 -24 0 1 1 234196 132 6 
83430.7 445990 8.245 57134 2 -24 0 1 1 234196 93 6 
83430.7 445991 8.247 57134 2 -24 0 1 1 234196 84 6 
83430.7 445991 8.232 57134 2 -24 0 1 1 234196 92 6 
83430.7 445992 8.237 57134 2 -24 0 1 1 234196 83 6 
83430.7 445992 8.224 57134 2 -24 0 1 1 234196 117 6 
83430.7 445992 8.225 57134 2 -24 0 1 1 234196 101 6 
83430.6 445993 8.201 57134 2 -24 0 1 1 234196 77 6 
83430.6 445993 8.213 57134 2 -24 0 1 1 234196 126 6 
83430.6 445994 8.194 57134 2 -24 0 1 1 234196 154 6 
83430.6 445994 8.2 57134 2 -24 0 1 1 234196 141 6 
83430.6 445994 8.217 57134 2 -24 0 1 1 234196 88 6 
83430.6 445995 8.215 57134 2 -24 0 1 1 234196 100 6 
83430.6 445995 8.239 57134 2 -24 0 1 1 234196 67 6 
83430.5 445995 8.284 57134 2 -24 0 1 1 234196 63 6 
83430.5 445996 8.353 57134 2 -24 0 1 1 234196 208 6 
83430.5 445996 8.459 57134 2 -24 0 1 1 234196 209 6 
83430.5 445997 8.508 57134 2 -24 0 1 1 234196 254 6 
83430.5 445997 8.466 57134 2 -24 0 1 1 234196 142 6 
83430.5 445997 8.267 57134 2 -24 0 1 1 234196 110 6 
83430.4 445998 8.165 57134 2 -24 0 1 1 234196 119 6 
83430.4 445998 8.049 57134 2 -24 0 1 1 234196 95 6 
83430.4 445999 7.945 57134 2 -25 0 1 1 234196 135 6 
83430.4 445999 7.78 57134 2 -25 0 1 1 234196 110 6 
83430.4 446000 7.681 57134 2 -25 0 1 1 234196 102 6 
83430.4 446000 7.525 57134 2 -25 0 1 1 234196 117 6 
83430.4 446001 7.416 57134 2 -25 0 1 1 234196 105 6 
83430.4 446001 7.304 57134 2 -25 0 1 1 234196 91 6 
83430.4 446002 7.198 57134 2 -25 0 1 1 234196 100 6 
83430.4 446002 7.049 57134 2 -25 0 1 1 234196 101 6 
83430.3 446002 6.975 57134 2 -25 0 1 1 234196 91 6 
83430.3 446003 6.84 57134 2 -25 0 1 1 234196 90 6 
83430.3 446003 6.747 57134 2 -25 0 1 1 234196 92 6 
83430.3 446004 6.605 57134 2 -25 0 1 1 234196 90 6 
83430.3 446004 6.496 57134 2 -25 0 1 1 234196 90 6 
83430.3 446005 6.36 57134 2 -25 0 1 1 234196 101 6 
83430.3 446005 6.26 57134 2 -25 0 1 1 234196 97 6 
83430.3 446006 6.124 57134 2 -25 0 1 1 234196 86 6 
83430.3 446006 6.019 57134 2 -25 0 1 1 234196 106 6 
83430.2 446007 5.881 57134 2 -25 0 1 1 234196 92 6 
83430.2 446007 5.792 57134 2 -25 0 1 1 234196 103 6 
83430.2 446007 5.658 57134 2 -25 0 1 1 234196 104 6 
83430.2 446008 5.532 57134 2 -25 0 1 1 234196 98 6 
83430.2 446008 5.426 57134 2 -25 0 1 1 234196 100 6 
83430.2 446009 5.328 57134 2 -25 0 1 1 234196 98 6 
83430.2 446009 5.195 57134 2 -25 0 1 1 234196 90 6 
83430.2 446010 5.051 57134 2 -26 0 1 1 234196 100 6 
83430.1 446010 5.06 57134 2 -26 0 1 1 234196 86 6 
83430.1 446011 5.065 57134 2 -26 0 1 1 234196 70 6 
83430.1 446011 5.048 57134 2 -26 0 1 1 234196 101 6 
83430.1 446011 5.034 57134 2 -26 0 1 1 234196 89 6 
83430.1 446012 5.041 57134 2 -26 0 1 1 234196 121 6 
83430.1 446012 5.043 57134 2 -26 0 1 1 234196 111 6 
83430.1 446013 5.048 57134 2 -26 0 2 1 234196 75 6 
83430.1 446013 4.15 57134 2 -26 0 2 2 234196 9 6 
83430.1 446014 4.076 57134 2 -26 0 1 1 234196 111 6 
83430.1 446014 3.95 57134 2 -26 0 1 1 234196 87 6 
83430.1 446015 3.845 57134 2 -26 0 1 1 234196 99 6 
83430 446015 3.704 57134 2 -26 0 1 1 234196 96 6 
83430 446015 3.6 57134 2 -26 0 1 1 234196 92 6 
83430 446015 4.313 57134 2 -26 0 2 1 234196 8 6 
83430 446016 3.437 57134 2 -26 0 2 2 234196 77 6 
83429.9 446016 5.064 57134 2 -26 0 2 1 234196 37 6 
83430 446016 3.262 57134 2 -26 0 2 2 234196 25 6 
83430 446017 3.215 57134 2 -26 0 1 1 234196 85 6 
83430 446017 3.097 57134 2 -26 0 1 1 234196 82 6 
83430 446018 2.979 57134 2 -26 0 1 1 234196 120 6 
83430 446018 2.849 57134 2 -26 0 1 1 234196 96 6 
83430 446019 2.749 57134 2 -26 0 1 1 234196 123 6 
83429.9 446019 2.602 57134 2 -26 0 1 1 234196 130 6 
83429.9 446020 2.628 57134 2 -26 0 2 1 234196 40 6 
83432.3 445970 0.08 57134 2 -21 0 3 3 234196 152 6 
83432.2 445970 1.089 57134 2 -21 0 1 1 234196 226 6 
83432.2 445970 2.109 57134 2 -21 0 1 1 234196 243 6 
83432.1 445971 2.125 57134 2 -21 0 2 1 234196 13 6 
83432.2 445972 0.756 57134 2 -21 0 2 2 234196 221 6 
83432.1 445972 1.824 57134 2 -21 0 1 1 234196 205 6 
83432.1 445972 2.529 57134 2 -21 0 1 1 234196 296 6 
83432.1 445972 2.471 57134 2 -21 0 1 1 234196 119 6 
83432 445973 2.468 57134 2 -21 0 2 1 234196 130 6 
83432 445973 2.507 57134 2 -21 0 1 1 234196 240 6 
83432 445974 2.529 57134 2 -21 0 2 1 234196 227 6 
83432 445974 2.563 57134 2 -21 0 1 1 234196 248 6 
83432 445974 2.572 57134 2 -22 0 2 1 234196 145 6 
83432.1 445975 0.43 57134 2 -22 0 2 2 234196 10 6 
83432 445975 2.601 57134 2 -22 0 2 1 234196 257 6 
83432.1 445976 0.372 57134 2 -22 0 2 2 234196 12 6 
83431.9 445975 2.577 57134 2 -22 0 2 1 234196 129 6 
83432 445976 0.409 57134 2 -22 0 2 2 234196 17 6 
83431.9 445975 2.575 57134 2 -22 0 1 1 234196 123 6 
83431.9 445976 2.623 57134 2 -22 0 1 1 234196 491 6 
83431.9 445976 2.599 57134 2 -22 0 2 1 234196 117 6 
83432 445977 1.086 57134 2 -22 0 2 2 234196 16 6 
83431.9 445977 2.621 57134 2 -22 0 2 1 234196 117 6 
83431.9 445977 1.401 57134 2 -22 0 2 2 234196 27 6 
83431.9 445977 2.611 57134 2 -22 0 3 1 234196 127 6 
83431.9 445977 2.041 57134 2 -22 0 3 2 234196 9 6 
83431.9 445978 1.204 57134 2 -22 0 3 3 234196 8 6 
83431.9 445977 2.647 57134 2 -22 0 2 1 234196 82 6 
83431.9 445978 0.798 57134 2 -22 0 2 2 234196 74 6 
83431.9 445978 1.408 57134 2 -22 0 3 1 234196 105 6 
83431.9 445979 0.667 57134 2 -22 0 3 2 234196 25 6 
83431.8 445978 2.756 57134 2 -22 0 1 1 234196 603 6 
83431.8 445978 2.784 57134 2 -22 0 1 1 234196 396 6 
83431.8 445979 3.378 57134 2 -22 0 1 1 234196 231 6 
83431.7 445979 3.508 57134 2 -22 0 1 1 234196 511 6 
83431.7 445979 3.783 57134 2 -22 0 1 1 234196 184 6 
83431.6 445979 5.368 57134 2 -22 0 2 1 234196 51 6 
83431.7 445979 4.61 57134 2 -22 0 2 2 234196 146 6 
83431.6 445979 6.154 57134 2 -22 0 1 1 234196 227 6 
83431.6 445979 6.164 57134 2 -22 0 1 1 234196 429 6 
83431.6 445980 6.286 57134 2 -22 0 1 1 234196 115 6 
83431.5 445980 7.067 57134 2 -22 0 2 1 234196 40 6 
83431.5 445980 6.572 57134 2 -22 0 2 2 234196 11 6 
83431.4 445980 8.255 57134 2 -22 0 2 1 234196 73 6 
83431.5 445980 7.241 57134 2 -22 0 2 2 234196 8 6 
83431.4 445980 8.327 57134 2 -22 0 1 1 234196 128 6 
83431.4 445980 8.337 57134 2 -22 0 1 1 234196 149 6 
83431.4 445981 8.314 57134 2 -23 0 1 1 234196 120 6 
83431.4 445981 8.253 57134 2 -23 0 1 1 234196 200 6 
83431.4 445982 8.226 57134 2 -23 0 1 1 234196 284 6 
83431.4 445982 8.214 57134 2 -23 0 1 1 234196 111 6 
83431.3 445982 8.206 57134 2 -23 0 1 1 234196 132 6 
83431.3 445983 8.206 57134 2 -23 0 1 1 234196 154 6 
83431.3 445983 8.215 57134 2 -23 0 1 1 234196 96 6 
83431.3 445984 8.221 57134 2 -23 0 1 1 234196 79 6 
83431.3 445984 8.222 57134 2 -23 0 1 1 234196 91 6 
83431.3 445984 8.235 57134 2 -23 0 1 1 234196 68 6 
83431.2 445985 8.224 57134 2 -23 0 1 1 234196 147 6 
83431.2 445985 8.235 57134 2 -23 0 1 1 234196 88 6 
83431.2 445986 8.242 57134 2 -23 0 1 1 234196 79 6 
83431.2 445986 8.238 57134 2 -23 0 1 1 234196 71 6 
83431.2 445986 8.245 57134 2 -23 0 1 1 234196 84 6 
83431.2 445987 8.258 57134 2 -23 0 1 1 234196 69 6 
83431.2 445987 8.243 57134 2 -23 0 1 1 234196 99 6 
83431.1 445987 8.253 57134 2 -23 0 1 1 234196 88 6 
83431.1 445988 8.249 57134 2 -23 0 1 1 234196 81 6 
83431.1 445988 8.246 57134 2 -23 0 1 1 234196 74 6 
83431.1 445989 8.242 57134 2 -23 0 1 1 234196 76 6 
83431.1 445989 8.241 57134 2 -23 0 1 1 234196 102 6 
83431.1 445989 8.245 57134 2 -23 0 1 1 234196 80 6 
83431 445990 8.253 57134 2 -24 0 1 1 234196 96 6 
83431 445990 8.253 57134 2 -24 0 1 1 234196 75 6 
83431 445991 8.246 57134 2 -24 0 1 1 234196 72 6 
83431 445991 8.239 57134 2 -24 0 1 1 234196 120 6 
83431 445991 8.232 57134 2 -24 0 1 1 234196 76 6 
83431 445992 8.232 57134 2 -24 0 1 1 234196 97 6 
83431 445992 8.227 57134 2 -24 0 1 1 234196 86 6 
83430.9 445993 8.216 57134 2 -24 0 1 1 234196 89 6 
83430.9 445993 8.21 57134 2 -24 0 1 1 234196 84 6 
83430.9 445993 8.206 57134 2 -24 0 1 1 234196 96 6 
83430.9 445994 8.204 57134 2 -24 0 1 1 234196 97 6 
83430.9 445994 8.23 57134 2 -24 0 1 1 234196 77 6 
83430.9 445994 8.326 57134 2 -24 0 1 1 234196 165 6 
83430.8 445995 8.388 57134 2 -24 0 1 1 234196 227 6 
83430.8 445995 8.49 57134 2 -24 0 1 1 234196 211 6 
83430.8 445996 8.504 57134 2 -24 0 1 1 234196 202 6 
83430.8 445996 8.342 57134 2 -24 0 1 1 234196 121 6 
83430.8 445997 8.215 57134 2 -24 0 1 1 234196 101 6 
83430.8 445997 8.07 57134 2 -24 0 1 1 234196 119 6 
83430.8 445997 7.972 57134 2 -24 0 1 1 234196 106 6 
83430.8 445998 7.909 57134 2 -24 0 1 1 234196 97 6 
83430.7 445998 7.74 57134 2 -24 0 1 1 234196 114 6 
83430.7 445999 7.671 57134 2 -24 0 1 1 234196 38 6 
83430.7 445999 7.476 57134 2 -25 0 1 1 234196 75 6 
83430.7 446000 7.379 57134 2 -25 0 1 1 234196 98 6 
83430.7 446000 7.259 57134 2 -25 0 1 1 234196 96 6 
83430.7 446001 7.139 57134 2 -25 0 1 1 234196 108 6 
83430.7 446001 7.01 57134 2 -25 0 1 1 234196 109 6 
83430.7 446002 6.888 57134 2 -25 0 1 1 234196 103 6 
83430.7 446002 6.778 57134 2 -25 0 1 1 234196 90 6 
83430.6 446002 6.664 57134 2 -25 0 1 1 234196 95 6 
83430.6 446003 6.545 57134 2 -25 0 1 1 234196 96 6 
83430.6 446003 6.428 57134 2 -25 0 1 1 234196 89 6 
83430.6 446004 6.323 57134 2 -25 0 1 1 234196 105 6 
83430.6 446004 6.196 57134 2 -25 0 1 1 234196 84 6 
83430.6 446005 6.058 57134 2 -25 0 1 1 234196 103 6 
83430.6 446005 5.966 57134 2 -25 0 1 1 234196 91 6 
83430.6 446006 5.83 57134 2 -25 0 1 1 234196 98 6 
83430.6 446006 5.725 57134 2 -25 0 1 1 234196 73 6 
83430.6 446007 5.602 57134 2 -25 0 1 1 234196 97 6 
83430.5 446007 5.504 57134 2 -25 0 1 1 234196 99 6 
83430.5 446007 5.374 57134 2 -25 0 1 1 234196 98 6 
83430.5 446008 5.236 57134 2 -25 0 1 1 234196 95 6 
83430.5 446008 5.129 57134 2 -25 0 1 1 234196 101 6 
83430.5 446009 5.022 57134 2 -25 0 1 1 234196 103 6 
83430.5 446009 4.876 57134 2 -25 0 1 1 234196 81 6 
83430.5 446010 5.037 57134 2 -26 0 1 1 234196 85 6 
83430.4 446010 5.037 57134 2 -26 0 1 1 234196 67 6 
83430.4 446010 5.059 57134 2 -26 0 1 1 234196 79 6 
83430.4 446011 5.05 57134 2 -26 0 1 1 234196 74 6 
83430.4 446011 5.043 57134 2 -26 0 1 1 234196 90 6 
83430.4 446012 5.05 57134 2 -26 0 1 1 234196 82 6 
83430.4 446012 5.045 57134 2 -26 0 1 1 234196 74 6 
83430.4 446013 5.036 57134 2 -26 0 1 1 234196 68 6 
83430.4 446014 3.8 57134 2 -26 0 1 1 234196 119 6 
83430.4 446014 3.68 57134 2 -26 0 1 1 234196 85 6 
83430.4 446015 3.542 57134 2 -26 0 1 1 234196 85 6 
83430.4 446015 3.414 57134 2 -26 0 1 1 234196 93 6 
83430.3 446015 3.285 57134 2 -26 0 1 1 234196 95 6 
83430.3 446016 3.166 57134 2 -26 0 1 1 234196 92 6 
83430.3 446016 3.036 57134 2 -26 0 1 1 234196 87 6 
83430.3 446017 2.929 57134 2 -26 0 1 1 234196 87 6 
83430.3 446017 2.787 57134 2 -26 0 1 1 234196 102 6 
83430.3 446018 2.657 57134 2 -26 0 1 1 234196 123 6 
83430.3 446018 2.595 57134 2 -26 0 2 1 234196 100 6 
83432.5 445970 0.619 57134 2 -21 0 1 1 234196 237 6 
83432.5 445970 1.645 57134 2 -21 0 3 3 234196 116 6 
83432.5 445970 2.093 57134 2 -21 0 3 2 234196 73 6 
83432.4 445970 2.173 57134 2 -21 0 2 1 234196 53 6 
83432.5 445972 0.341 57134 2 -21 0 1 1 234196 64 6 
83432.4 445972 1.198 57134 2 -21 0 1 1 234196 240 6 
83432.4 445972 2.266 57134 2 -21 0 1 1 234196 211 6 
83432.3 445972 2.543 57134 2 -21 0 1 1 234196 217 6 
83432.3 445973 2.574 57134 2 -21 0 1 1 234196 303 6 
83432.3 445973 2.554 57134 2 -21 0 1 1 234196 205 6 
83432.3 445973 2.607 57134 2 -21 0 1 1 234196 390 6 
83432.3 445974 2.577 57134 2 -21 0 1 1 234196 140 6 
83432.3 445974 2.59 57134 2 -22 0 2 1 234196 118 6 
83432.4 445975 0.511 57134 2 -22 0 2 2 234196 13 6 
83432.3 445975 2.599 57134 2 -22 0 1 1 234196 301 6 
83432.2 445975 2.609 57134 2 -22 0 2 1 234196 130 6 
83432.3 445976 0.573 57134 2 -22 0 2 2 234196 14 6 
83432.2 445975 2.606 57134 2 -22 0 2 1 234196 108 6 
83432.3 445976 0.808 57134 2 -22 0 2 2 234196 13 6 
83432.2 445976 2.612 57134 2 -22 0 2 1 234196 101 6 
83432.3 445977 0.29 57134 2 -22 0 2 2 234196 8 6 
83432.2 445976 2.649 57134 2 -22 0 1 1 234196 235 6 
83432.2 445976 2.624 57134 2 -22 0 2 1 234196 129 6 
83432.2 445977 1.302 57134 2 -22 0 2 2 234196 13 6 
83432.2 445977 2.643 57134 2 -22 0 1 1 234196 257 6 
83432.1 445977 2.688 57134 2 -22 0 1 1 234196 553 6 
83432.1 445977 3.034 57134 2 -22 0 1 1 234196 116 6 
83432.1 445978 3.617 57134 2 -22 0 1 1 234196 139 6 
83432 445978 4.235 57134 2 -22 0 1 1 234196 115 6 
83432 445978 4.885 57134 2 -22 0 2 1 234196 140 6 
83432.1 445978 3.429 57134 2 -22 0 2 2 234196 8 6 
83431.9 445978 5.488 57134 2 -22 0 1 1 234196 142 6 
