ply
format ascii 1.0
comment Created by CloudCompare v2.11.1 (Anoia)
comment Created 20/05/2021 13:27
obj_info Generated by CloudCompare!
element vertex 433
property double x
property double y
property double z
property float nx
property float ny
property float nz
property float scalar_ScanAngleRank
property float scalar_EdgeOfFlightLine
property float scalar_NumberOfReturns
property float scalar_ReturnNumber
property float scalar_Classification
end_header
85674.100006 446908.000000 2.071000 0.918596 -0.200809 -0.340379 31.000000 0.000000 1.000000 1.000000 6.000000 
85674.500000 446907.000000 2.472000 -0.409964 0.128202 0.903047 31.000000 0.000000 1.000000 1.000000 6.000000 
85674.500000 446907.000000 2.515000 -0.409964 0.128202 0.903047 32.000000 0.000000 2.000000 1.000000 6.000000 
85674.399994 446908.000000 2.441000 0.918596 -0.200809 -0.340379 31.000000 0.000000 1.000000 1.000000 6.000000 
85674.500000 446908.000000 1.897000 0.918596 -0.200809 -0.340379 31.000000 0.000000 1.000000 1.000000 6.000000 
85674.600006 446908.000000 0.286000 0.918596 -0.200809 -0.340379 31.000000 0.000000 1.000000 1.000000 6.000000 
85674.399994 446908.000000 2.405000 0.918596 -0.200809 -0.340379 31.000000 0.000000 1.000000 1.000000 6.000000 
85674.500000 446908.000000 1.089000 0.918596 -0.200809 -0.340379 31.000000 0.000000 1.000000 1.000000 6.000000 
85674.700012 446908.000000 2.406000 0.918596 -0.200809 -0.340379 31.000000 0.000000 2.000000 1.000000 6.000000 
85683.700012 446906.000000 -0.103000 0.801963 -0.070047 0.593253 31.000000 0.000000 2.000000 2.000000 6.000000 
85683.700012 446907.000000 2.470000 0.806790 -0.061185 0.587662 32.000000 0.000000 1.000000 1.000000 6.000000 
85683.799988 446906.000000 2.411000 0.801963 -0.070047 0.593253 32.000000 1.000000 1.000000 1.000000 6.000000 
85683.799988 446907.000000 1.159000 0.806790 -0.061185 0.587662 31.000000 0.000000 1.000000 1.000000 6.000000 
85683.899994 446907.000000 0.406000 0.806790 -0.061185 0.587662 31.000000 0.000000 1.000000 1.000000 6.000000 
85683.799988 446907.000000 1.893000 0.806790 -0.061185 0.587662 31.000000 0.000000 1.000000 1.000000 6.000000 
85684.100006 446907.000000 1.509000 0.806790 -0.061185 0.587662 31.000000 0.000000 1.000000 1.000000 6.000000 
85684.100006 446906.000000 2.415000 0.801963 -0.070047 0.593253 32.000000 0.000000 1.000000 1.000000 6.000000 
85684.200012 446907.000000 0.750000 0.806790 -0.061185 0.587662 31.000000 0.000000 1.000000 1.000000 6.000000 
85684.000000 446906.000000 2.409000 0.801963 -0.070047 0.593253 32.000000 0.000000 1.000000 1.000000 6.000000 
85684.200012 446907.000000 -0.047000 0.806790 -0.061185 0.587662 31.000000 0.000000 1.000000 1.000000 6.000000 
85684.100006 446905.000000 2.410000 0.862868 -0.083321 0.498514 32.000000 1.000000 1.000000 1.000000 6.000000 
85684.000000 446907.000000 2.301000 0.806790 -0.061185 0.587662 32.000000 0.000000 1.000000 1.000000 6.000000 
85684.399994 446906.000000 2.396000 0.801963 -0.070047 0.593253 32.000000 1.000000 1.000000 1.000000 6.000000 
85684.399994 446907.000000 1.225000 0.806790 -0.061185 0.587662 31.000000 0.000000 1.000000 1.000000 6.000000 
85684.299988 446907.000000 2.440000 0.806790 -0.061185 0.587662 32.000000 0.000000 1.000000 1.000000 6.000000 
85684.399994 446907.000000 1.975000 0.806790 -0.061185 0.587662 31.000000 0.000000 1.000000 1.000000 6.000000 
85684.500000 446907.000000 0.409000 0.806790 -0.061185 0.587662 31.000000 0.000000 1.000000 1.000000 6.000000 
85684.799988 446907.000000 0.838000 0.806790 -0.061185 0.587662 31.000000 0.000000 1.000000 1.000000 6.000000 
85684.700012 446907.000000 1.579000 0.806790 -0.061185 0.587662 31.000000 0.000000 1.000000 1.000000 6.000000 
85684.700012 446907.000000 2.349000 0.806790 -0.061185 0.587662 32.000000 1.000000 1.000000 1.000000 6.000000 
85684.799988 446907.000000 0.064000 0.806790 -0.061185 0.587662 31.000000 0.000000 1.000000 1.000000 6.000000 
85685.100006 446907.000000 1.270000 0.806790 -0.061185 0.587662 31.000000 0.000000 1.000000 1.000000 6.000000 
85685.000000 446906.000000 2.393000 0.801963 -0.070047 0.593253 32.000000 1.000000 1.000000 1.000000 6.000000 
85685.200012 446907.000000 0.527000 0.806790 -0.061185 0.587662 31.000000 0.000000 1.000000 1.000000 6.000000 
85685.000000 446907.000000 2.088000 0.806790 -0.061185 0.587662 32.000000 0.000000 1.000000 1.000000 6.000000 
85685.299988 446907.000000 2.411000 0.806790 -0.061185 0.587662 32.000000 0.000000 2.000000 1.000000 6.000000 
85685.399994 446907.000000 1.719000 0.806790 -0.061185 0.587662 31.000000 0.000000 1.000000 1.000000 6.000000 
85685.299988 446906.000000 2.517000 0.801963 -0.070047 0.593253 32.000000 0.000000 2.000000 1.000000 6.000000 
85701.100006 446896.000000 3.607000 0.085446 0.615498 0.783493 9.000000 0.000000 1.000000 1.000000 6.000000 
85701.100006 446895.000000 4.308000 0.088679 0.614938 0.783573 9.000000 0.000000 1.000000 1.000000 6.000000 
85701.000000 446894.000000 4.936000 0.094732 0.607743 0.788463 9.000000 0.000000 1.000000 1.000000 6.000000 
85701.000000 446893.000000 5.595000 0.106708 0.594936 0.796659 9.000000 0.000000 2.000000 1.000000 6.000000 
85701.000000 446893.000000 5.890000 0.112999 0.585538 0.802730 9.000000 0.000000 2.000000 1.000000 6.000000 
85701.000000 446895.000000 4.627000 0.091563 0.614777 0.783368 9.000000 0.000000 1.000000 1.000000 6.000000 
85701.000000 446894.000000 5.275000 0.094732 0.607743 0.788463 9.000000 0.000000 2.000000 1.000000 6.000000 
85700.899994 446893.000000 6.182000 0.118914 0.579888 0.805971 9.000000 0.000000 2.000000 1.000000 6.000000 
85701.100006 446895.000000 4.020000 0.088477 0.613539 0.784692 9.000000 0.000000 1.000000 1.000000 6.000000 
85700.799988 446896.000000 3.718000 0.082528 0.612448 0.786192 9.000000 0.000000 1.000000 1.000000 6.000000 
85700.700012 446894.000000 4.728000 0.094732 0.607743 0.788463 9.000000 0.000000 1.000000 1.000000 6.000000 
85700.700012 446894.000000 5.322000 0.097670 0.610803 0.785735 9.000000 0.000000 1.000000 1.000000 6.000000 
85700.600006 446892.000000 6.317000 0.142790 0.522582 0.840547 9.000000 0.000000 1.000000 1.000000 6.000000 
85700.600006 446892.000000 6.656000 0.145395 0.515493 0.844469 9.000000 0.000000 1.000000 1.000000 6.000000 
85700.799988 446895.000000 4.074000 0.088520 0.616741 0.782173 9.000000 0.000000 1.000000 1.000000 6.000000 
85700.500000 446890.000000 8.150000 0.241857 0.299101 0.923062 8.000000 0.000000 2.000000 1.000000 6.000000 
85700.700012 446894.000000 5.020000 0.094732 0.607743 0.788463 9.000000 0.000000 1.000000 1.000000 6.000000 
85700.700012 446893.000000 5.978000 0.116018 0.580088 0.806249 9.000000 0.000000 1.000000 1.000000 6.000000 
85700.500000 446890.000000 8.474000 0.248100 0.296859 0.922128 8.000000 0.000000 2.000000 1.000000 6.000000 
85700.500000 446891.000000 7.830000 0.197873 0.417731 0.886762 8.000000 0.000000 2.000000 1.000000 6.000000 
85700.600006 446892.000000 6.946000 0.145615 0.513331 0.845746 8.000000 0.000000 1.000000 1.000000 6.000000 
85700.700012 446893.000000 5.632000 0.109978 0.590950 0.799176 9.000000 0.000000 1.000000 1.000000 6.000000 
85700.600006 446891.000000 7.252000 0.189442 0.430282 0.882592 8.000000 0.000000 1.000000 1.000000 6.000000 
85700.500000 446891.000000 7.534000 0.194814 0.420388 0.886184 8.000000 0.000000 1.000000 1.000000 6.000000 
85700.799988 446895.000000 4.376000 0.088520 0.616741 0.782173 9.000000 0.000000 1.000000 1.000000 6.000000 
85700.500000 446896.000000 3.621000 0.079205 0.591876 0.802128 9.000000 0.000000 2.000000 1.000000 6.000000 
85700.399994 446894.000000 4.777000 0.094612 0.612798 0.784556 9.000000 0.000000 1.000000 1.000000 6.000000 
85700.500000 446895.000000 4.081000 0.085526 0.621876 0.778432 9.000000 0.000000 1.000000 1.000000 6.000000 
85700.500000 446895.000000 4.434000 0.088562 0.619936 0.779638 9.000000 0.000000 1.000000 1.000000 6.000000 
85700.399994 446893.000000 5.701000 0.112999 0.585538 0.802730 9.000000 0.000000 1.000000 1.000000 6.000000 
85700.399994 446894.000000 5.409000 0.094564 0.609577 0.787067 9.000000 0.000000 1.000000 1.000000 6.000000 
85700.200012 446891.000000 7.626000 0.184891 0.417825 0.889515 8.000000 0.000000 1.000000 1.000000 6.000000 
85700.200012 446890.000000 8.216000 0.240355 0.291555 0.925865 8.000000 0.000000 1.000000 1.000000 6.000000 
85700.299988 446892.000000 6.655000 0.138947 0.513371 0.846843 9.000000 0.000000 1.000000 1.000000 6.000000 
85700.299988 446891.000000 7.312000 0.182573 0.425030 0.886576 8.000000 0.000000 1.000000 1.000000 6.000000 
85700.500000 446896.000000 3.776000 0.079298 0.598341 0.797308 9.000000 0.000000 1.000000 1.000000 6.000000 
85700.100006 446889.000000 8.833000 0.250704 0.149892 0.956389 8.000000 0.000000 1.000000 1.000000 6.000000 
85700.000000 446888.000000 9.480000 0.229689 0.027659 0.972871 8.000000 0.000000 1.000000 1.000000 6.000000 
85700.100006 446888.000000 9.693000 0.230194 0.032541 0.972600 8.000000 0.000000 1.000000 1.000000 6.000000 
85700.000000 446887.000000 9.172000 0.260613 -0.066727 0.963135 8.000000 0.000000 1.000000 1.000000 6.000000 
85700.299988 446893.000000 6.009000 0.115940 0.576763 0.808642 9.000000 0.000000 1.000000 1.000000 6.000000 
85700.000000 446888.000000 9.317000 0.229673 0.030062 0.972803 8.000000 0.000000 1.000000 1.000000 6.000000 
85700.299988 446892.000000 6.321000 0.139081 0.516796 0.844735 9.000000 0.000000 1.000000 1.000000 6.000000 
85699.700012 446885.000000 8.081000 0.117155 -0.324534 0.938591 8.000000 0.000000 2.000000 1.000000 6.000000 
85700.399994 446894.000000 5.081000 0.094781 0.610975 0.785956 9.000000 0.000000 1.000000 1.000000 6.000000 
85699.799988 446886.000000 8.431000 0.199660 -0.173561 0.964372 8.000000 0.000000 1.000000 1.000000 6.000000 
85700.100006 446889.000000 9.465000 0.264043 0.141973 0.954005 8.000000 0.000000 1.000000 1.000000 6.000000 
85700.100006 446889.000000 9.171000 0.258997 0.144772 0.954967 8.000000 0.000000 1.000000 1.000000 6.000000 
85699.799988 446886.000000 8.257000 0.196745 -0.170686 0.965483 8.000000 0.000000 2.000000 1.000000 6.000000 
85699.700012 446885.000000 7.907000 0.117155 -0.324534 0.938591 8.000000 0.000000 2.000000 1.000000 6.000000 
85699.899994 446886.000000 8.617000 0.206547 -0.180235 0.961693 8.000000 0.000000 2.000000 1.000000 6.000000 
85699.899994 446887.000000 8.970000 0.251810 -0.053339 0.966306 8.000000 0.000000 1.000000 1.000000 6.000000 
85699.899994 446887.000000 8.801000 0.255354 -0.053562 0.965363 8.000000 0.000000 1.000000 1.000000 6.000000 
85699.600006 446884.000000 7.343000 0.053385 -0.461298 0.885638 8.000000 0.000000 2.000000 1.000000 6.000000 
85699.600006 446884.000000 7.495000 0.053255 -0.460182 0.886226 8.000000 0.000000 2.000000 1.000000 6.000000 
85699.399994 446882.000000 6.161000 0.064673 0.748771 -0.659666 7.000000 0.000000 2.000000 1.000000 6.000000 
85700.299988 446892.000000 6.989000 0.141885 0.507569 0.849849 8.000000 0.000000 1.000000 1.000000 6.000000 
85700.200012 446890.000000 7.914000 0.225314 0.296167 0.928180 8.000000 0.000000 1.000000 1.000000 6.000000 
85699.700012 446885.000000 7.733000 0.114209 -0.323816 0.939201 8.000000 0.000000 2.000000 1.000000 6.000000 
85700.200012 446890.000000 8.529000 0.240788 0.294930 0.924682 8.000000 0.000000 1.000000 1.000000 6.000000 
85699.600006 446884.000000 7.138000 0.065541 -0.500618 0.863183 7.000000 0.000000 2.000000 1.000000 6.000000 
85700.200012 446896.000000 3.600000 0.079022 0.590511 0.803152 9.000000 0.000000 2.000000 1.000000 6.000000 
85700.200012 446896.000000 3.875000 0.079252 0.595111 0.799726 9.000000 0.000000 1.000000 1.000000 6.000000 
85700.100006 446894.000000 4.793000 0.091726 0.612964 0.784768 9.000000 0.000000 1.000000 1.000000 6.000000 
85700.100006 446894.000000 5.122000 0.094612 0.612798 0.784556 9.000000 0.000000 1.000000 1.000000 6.000000 
85700.100006 446894.000000 5.462000 0.094612 0.612798 0.784556 9.000000 0.000000 1.000000 1.000000 6.000000 
85700.100006 446893.000000 5.772000 0.115743 0.578717 0.807273 9.000000 0.000000 1.000000 1.000000 6.000000 
85700.200012 446895.000000 4.471000 0.085564 0.625053 0.775878 9.000000 0.000000 1.000000 1.000000 6.000000 
85700.100006 446893.000000 6.102000 0.115665 0.575396 0.809655 9.000000 0.000000 1.000000 1.000000 6.000000 
85700.000000 446892.000000 6.414000 0.136076 0.513578 0.847184 9.000000 0.000000 1.000000 1.000000 6.000000 
85700.000000 446892.000000 7.015000 0.135807 0.506719 0.851347 8.000000 0.000000 1.000000 1.000000 6.000000 
85699.899994 446890.000000 8.581000 0.227368 0.286681 0.930654 8.000000 0.000000 1.000000 1.000000 6.000000 
85699.799988 446889.000000 9.198000 0.247487 0.152198 0.956862 8.000000 0.000000 1.000000 1.000000 6.000000 
85699.799988 446888.000000 9.626000 0.229689 0.027659 0.972871 8.000000 0.000000 1.000000 1.000000 6.000000 
85700.200012 446895.000000 4.172000 0.085680 0.620093 0.779836 9.000000 0.000000 1.000000 1.000000 6.000000 
85700.000000 446891.000000 7.345000 0.172734 0.422400 0.889798 8.000000 0.000000 1.000000 1.000000 6.000000 
85699.899994 446891.000000 7.658000 0.175069 0.415245 0.892705 8.000000 0.000000 1.000000 1.000000 6.000000 
85699.600006 446886.000000 8.583000 0.183985 -0.165972 0.968815 8.000000 0.000000 1.000000 1.000000 6.000000 
85699.600006 446887.000000 8.933000 0.243065 -0.053055 0.968558 8.000000 0.000000 1.000000 1.000000 6.000000 
85699.799988 446889.000000 9.524000 0.247057 0.146649 0.957840 8.000000 0.000000 1.000000 1.000000 6.000000 
85699.500000 446886.000000 8.231000 0.175270 -0.162477 0.971021 8.000000 0.000000 1.000000 1.000000 6.000000 
85699.500000 446886.000000 8.415000 0.175270 -0.162477 0.971021 8.000000 0.000000 1.000000 1.000000 6.000000 
85699.899994 446889.000000 8.887000 0.248116 0.152584 0.956638 8.000000 0.000000 1.000000 1.000000 6.000000 
85699.600006 446887.000000 8.787000 0.244861 -0.047988 0.968370 8.000000 0.000000 1.000000 1.000000 6.000000 
85699.299988 446884.000000 7.537000 0.044810 -0.454893 0.889418 8.000000 0.000000 1.000000 1.000000 6.000000 
85699.899994 446890.000000 8.314000 0.230044 0.286496 0.930054 8.000000 0.000000 1.000000 1.000000 6.000000 
85699.399994 446885.000000 7.883000 0.099575 -0.314656 0.943968 8.000000 0.000000 1.000000 1.000000 6.000000 
85699.700012 446887.000000 9.271000 0.222620 -0.062727 0.972885 8.000000 0.000000 1.000000 1.000000 6.000000 
85699.700012 446888.000000 9.453000 0.217180 0.034797 0.975511 8.000000 0.000000 1.000000 1.000000 6.000000 
85699.100006 446884.000000 3.085000 0.373578 0.865532 -0.333607 7.000000 0.000000 2.000000 2.000000 6.000000 
85699.899994 446890.000000 7.980000 0.221057 0.291457 0.930691 8.000000 0.000000 1.000000 1.000000 6.000000 
85699.399994 446885.000000 8.034000 0.099575 -0.314656 0.943968 8.000000 0.000000 1.000000 1.000000 6.000000 
85699.399994 446885.000000 7.709000 0.099575 -0.314656 0.943968 8.000000 0.000000 1.000000 1.000000 6.000000 
85700.000000 446892.000000 6.718000 0.135942 0.510149 0.849275 9.000000 0.000000 1.000000 1.000000 6.000000 
85699.299988 446884.000000 7.132000 0.053901 -0.496162 0.866555 7.000000 0.000000 1.000000 1.000000 6.000000 
85699.100006 446882.000000 6.218000 0.061721 0.742091 -0.667451 7.000000 0.000000 2.000000 1.000000 6.000000 
85699.200012 446883.000000 6.994000 -0.015252 -0.614253 0.788962 7.000000 0.000000 1.000000 1.000000 6.000000 
85699.299988 446884.000000 7.346000 0.047909 -0.472249 0.880162 8.000000 0.000000 1.000000 1.000000 6.000000 
85699.700012 446887.000000 9.086000 0.244199 -0.055782 0.968119 8.000000 0.000000 1.000000 1.000000 6.000000 
85699.200012 446883.000000 6.615000 -0.020919 -0.642920 0.765647 7.000000 0.000000 1.000000 1.000000 6.000000 
85699.100006 446882.000000 6.443000 0.061756 0.733896 -0.676448 7.000000 0.000000 1.000000 1.000000 6.000000 
85699.200012 446883.000000 6.798000 -0.015233 -0.619033 0.785217 7.000000 0.000000 2.000000 1.000000 6.000000 
85699.799988 446895.000000 4.256000 0.100837 0.615253 0.781854 9.000000 0.000000 1.000000 1.000000 6.000000 
85699.799988 446894.000000 5.193000 0.100787 0.612027 0.784388 9.000000 0.000000 1.000000 1.000000 6.000000 
85699.700012 446893.000000 6.165000 0.115778 0.570098 0.813378 9.000000 0.000000 1.000000 1.000000 6.000000 
85699.799988 446895.000000 4.589000 0.104015 0.619697 0.777918 9.000000 0.000000 1.000000 1.000000 6.000000 
85699.700012 446892.000000 6.474000 0.129552 0.508018 0.851548 9.000000 0.000000 1.000000 1.000000 6.000000 
85699.600006 446891.000000 7.425000 0.172261 0.415454 0.893154 8.000000 0.000000 1.000000 1.000000 6.000000 
85699.600006 446892.000000 6.813000 0.132144 0.500986 0.855307 9.000000 0.000000 1.000000 1.000000 6.000000 
85699.600006 446891.000000 7.708000 0.175279 0.412846 0.893776 8.000000 0.000000 1.000000 1.000000 6.000000 
85699.799988 446894.000000 4.896000 0.100787 0.612027 0.784388 9.000000 0.000000 1.000000 1.000000 6.000000 
85699.500000 446890.000000 8.667000 0.220434 0.282211 0.933684 8.000000 0.000000 1.000000 1.000000 6.000000 
85699.500000 446889.000000 9.005000 0.234115 0.160045 0.958945 8.000000 0.000000 1.000000 1.000000 6.000000 
85699.899994 446896.000000 3.948000 0.091312 0.587006 0.804416 9.000000 0.000000 1.000000 1.000000 6.000000 
85699.299988 446887.000000 9.210000 0.216896 -0.062495 0.974192 8.000000 0.000000 2.000000 1.000000 6.000000 
85699.600006 446890.000000 8.037000 0.220258 0.284793 0.932941 8.000000 0.000000 1.000000 1.000000 6.000000 
85699.500000 446890.000000 8.363000 0.219857 0.281473 0.934043 8.000000 0.000000 1.000000 1.000000 6.000000 
85699.299988 446887.000000 8.865000 0.220953 -0.042259 0.974368 8.000000 0.000000 1.000000 1.000000 6.000000 
85699.399994 446888.000000 9.592000 0.207413 0.029630 0.977805 8.000000 0.000000 1.000000 1.000000 6.000000 
85699.500000 446889.000000 9.307000 0.236210 0.154395 0.959358 8.000000 0.000000 1.000000 1.000000 6.000000 
85699.200012 446886.000000 8.374000 0.160426 -0.160426 0.973924 8.000000 0.000000 1.000000 1.000000 6.000000 
85699.100006 446886.000000 8.167000 0.151282 -0.153782 0.976455 8.000000 0.000000 1.000000 1.000000 6.000000 
85699.200012 446887.000000 8.671000 0.226093 -0.039899 0.973288 8.000000 0.000000 1.000000 1.000000 6.000000 
85699.200012 446888.000000 5.431000 0.286438 0.062380 0.956066 8.000000 0.000000 2.000000 2.000000 6.000000 
85699.899994 446896.000000 3.567000 0.088025 0.584429 0.806656 9.000000 0.000000 1.000000 1.000000 6.000000 
85699.700012 446894.000000 5.494000 0.110095 0.609192 0.785344 9.000000 0.000000 1.000000 1.000000 6.000000 
85699.100006 446885.000000 7.807000 0.088009 -0.308689 0.947083 8.000000 0.000000 1.000000 1.000000 6.000000 
85699.200012 446886.000000 8.551000 0.160426 -0.160426 0.973924 8.000000 0.000000 1.000000 1.000000 6.000000 
85699.700012 446893.000000 5.834000 0.115860 0.573433 0.811019 9.000000 0.000000 1.000000 1.000000 6.000000 
85699.399994 446888.000000 9.417000 0.200562 0.034416 0.979076 8.000000 0.000000 1.000000 1.000000 6.000000 
85699.600006 446892.000000 7.112000 0.135332 0.502038 0.854192 8.000000 0.000000 1.000000 1.000000 6.000000 
85698.899994 446884.000000 7.129000 0.045254 -0.489564 0.870792 7.000000 0.000000 2.000000 1.000000 6.000000 
85698.799988 446882.000000 6.334000 0.064778 0.752866 -0.654979 7.000000 0.000000 2.000000 1.000000 6.000000 
85699.399994 446888.000000 9.579000 0.207413 0.029630 0.977805 8.000000 0.000000 1.000000 1.000000 6.000000 
85699.000000 446885.000000 7.636000 0.088009 -0.308689 0.947083 8.000000 0.000000 1.000000 1.000000 6.000000 
85698.700012 446883.000000 3.113000 0.370558 0.906929 -0.200418 7.000000 0.000000 2.000000 2.000000 6.000000 
85699.100006 446885.000000 7.997000 0.088009 -0.308689 0.947083 8.000000 0.000000 1.000000 1.000000 6.000000 
85698.799988 446883.000000 6.726000 -0.029541 -0.651318 0.758230 7.000000 0.000000 2.000000 1.000000 6.000000 
85698.799988 446884.000000 3.515000 0.341259 0.878173 -0.335192 7.000000 0.000000 2.000000 2.000000 6.000000 
85698.899994 446884.000000 7.278000 0.042472 -0.486368 0.872721 8.000000 0.000000 1.000000 1.000000 6.000000 
85699.299988 446887.000000 9.056000 0.220136 -0.049865 0.974194 8.000000 0.000000 1.000000 1.000000 6.000000 
85699.000000 446884.000000 7.465000 0.039331 -0.467900 0.882906 8.000000 0.000000 1.000000 1.000000 6.000000 
85698.899994 446883.000000 6.954000 -0.018016 -0.611151 0.791309 7.000000 0.000000 1.000000 1.000000 6.000000 
85698.799988 446883.000000 6.568000 -0.044136 -0.687667 0.724684 7.000000 0.000000 1.000000 1.000000 6.000000 
85699.500000 446896.000000 3.708000 0.103246 0.577306 0.809974 9.000000 0.000000 1.000000 1.000000 6.000000 
85699.500000 446896.000000 3.991000 0.109696 0.577731 0.808823 9.000000 0.000000 1.000000 1.000000 6.000000 
85699.399994 446894.000000 4.963000 0.113311 0.613648 0.781407 9.000000 0.000000 1.000000 1.000000 6.000000 
85699.299988 446893.000000 5.923000 0.124855 0.565520 0.815229 9.000000 0.000000 1.000000 1.000000 6.000000 
85699.200012 446891.000000 7.512000 0.177836 0.409167 0.894962 8.000000 0.000000 1.000000 1.000000 6.000000 
85699.299988 446892.000000 6.560000 0.132473 0.502233 0.854525 9.000000 0.000000 1.000000 1.000000 6.000000 
85699.299988 446892.000000 6.891000 0.138590 0.497466 0.856341 9.000000 0.000000 1.000000 1.000000 6.000000 
85699.299988 446892.000000 7.176000 0.144515 0.494856 0.856874 8.000000 0.000000 1.000000 1.000000 6.000000 
85699.100006 446888.000000 9.717000 0.197380 0.031912 0.979808 8.000000 0.000000 1.000000 1.000000 6.000000 
85699.200012 446890.000000 8.132000 0.207899 0.283245 0.936243 8.000000 0.000000 1.000000 1.000000 6.000000 
85699.399994 446895.000000 4.661000 0.116694 0.613013 0.781407 9.000000 0.000000 1.000000 1.000000 6.000000 
85699.399994 446894.000000 5.605000 0.119761 0.607678 0.785102 9.000000 0.000000 1.000000 1.000000 6.000000 
85699.100006 446890.000000 8.732000 0.213563 0.277772 0.936607 8.000000 0.000000 1.000000 1.000000 6.000000 
85699.000000 446888.000000 9.352000 0.187968 0.024518 0.981869 8.000000 0.000000 1.000000 1.000000 6.000000 
85699.000000 446888.000000 9.521000 0.189232 0.031735 0.981420 8.000000 0.000000 1.000000 1.000000 6.000000 
85699.000000 446887.000000 9.183000 0.201363 -0.056671 0.977876 8.000000 0.000000 1.000000 1.000000 6.000000 
85699.100006 446889.000000 9.062000 0.219224 0.161464 0.962222 8.000000 0.000000 1.000000 1.000000 6.000000 
85698.799988 446886.000000 8.465000 0.149144 -0.156663 0.976326 8.000000 0.000000 1.000000 1.000000 6.000000 
85698.899994 446886.000000 8.659000 0.148837 -0.153840 0.976822 8.000000 0.000000 1.000000 1.000000 6.000000 
85699.299988 446893.000000 6.221000 0.124762 0.562165 0.817561 9.000000 0.000000 1.000000 1.000000 6.000000 
85698.799988 446886.000000 8.277000 0.146033 -0.153521 0.977295 8.000000 0.000000 1.000000 1.000000 6.000000 
85699.200012 446891.000000 7.818000 0.183859 0.403911 0.896132 8.000000 0.000000 1.000000 1.000000 6.000000 
85698.899994 446887.000000 8.998000 0.196843 -0.044140 0.979441 8.000000 0.000000 1.000000 1.000000 6.000000 
85698.600006 446885.000000 7.605000 0.076673 -0.302794 0.949967 8.000000 0.000000 2.000000 1.000000 6.000000 
85698.600006 446884.000000 7.419000 0.030979 -0.464690 0.884931 8.000000 0.000000 1.000000 1.000000 6.000000 
85698.899994 446887.000000 8.803000 0.207460 -0.041972 0.977343 8.000000 0.000000 1.000000 1.000000 6.000000 
85699.399994 446894.000000 5.294000 0.116425 0.611600 0.782554 9.000000 0.000000 1.000000 1.000000 6.000000 
85698.700012 446885.000000 7.953000 0.076673 -0.302794 0.949967 8.000000 0.000000 1.000000 1.000000 6.000000 
85698.500000 446884.000000 4.102000 0.276313 0.841287 -0.464637 8.000000 0.000000 2.000000 2.000000 6.000000 
85698.500000 446883.000000 6.717000 -0.046959 -0.678772 0.732846 7.000000 0.000000 1.000000 1.000000 6.000000 
85699.100006 446889.000000 9.367000 0.221346 0.155859 0.962660 8.000000 0.000000 1.000000 1.000000 6.000000 
85699.200012 446890.000000 8.415000 0.213397 0.280345 0.935878 8.000000 0.000000 1.000000 1.000000 6.000000 
85698.700012 446885.000000 7.765000 0.079256 -0.302732 0.949774 8.000000 0.000000 1.000000 1.000000 6.000000 
85698.600006 446884.000000 7.226000 0.034018 -0.483050 0.874932 8.000000 0.000000 2.000000 1.000000 6.000000 
85698.500000 446885.000000 2.732000 0.385884 0.862474 -0.327463 8.000000 0.000000 2.000000 2.000000 6.000000 
85698.700012 446886.000000 8.129000 0.145732 -0.150715 0.977777 8.000000 0.000000 1.000000 1.000000 6.000000 
85698.500000 446884.000000 7.058000 0.012238 -0.539823 0.841689 7.000000 0.000000 1.000000 1.000000 6.000000 
85699.500000 446895.000000 4.326000 0.107301 0.615876 0.780502 9.000000 0.000000 1.000000 1.000000 6.000000 
85698.399994 446883.000000 6.533000 -0.070815 -0.695143 0.715375 7.000000 0.000000 1.000000 1.000000 6.000000 
85698.500000 446883.000000 6.896000 -0.026594 -0.625668 0.779636 7.000000 0.000000 1.000000 1.000000 6.000000 
85699.100006 446896.000000 3.783000 0.122137 0.572424 0.810811 9.000000 0.000000 1.000000 1.000000 6.000000 
85699.100006 446896.000000 3.620000 0.118668 0.569902 0.813099 9.000000 0.000000 2.000000 1.000000 6.000000 
85698.899994 446893.000000 6.304000 0.137192 0.553194 0.821678 9.000000 0.000000 1.000000 1.000000 6.000000 
85699.100006 446895.000000 4.423000 0.122959 0.608872 0.783681 9.000000 0.000000 1.000000 1.000000 6.000000 
85699.000000 446893.000000 5.680000 0.131575 0.569171 0.811623 9.000000 0.000000 1.000000 1.000000 6.000000 
85698.899994 446892.000000 6.935000 0.153901 0.491017 0.857448 9.000000 0.000000 1.000000 1.000000 6.000000 
85699.100006 446895.000000 4.698000 0.122959 0.608872 0.783681 9.000000 0.000000 1.000000 1.000000 6.000000 
85698.799988 446890.000000 8.202000 0.203786 0.278646 0.938524 8.000000 0.000000 1.000000 1.000000 6.000000 
85698.799988 446890.000000 8.811000 0.206375 0.270088 0.940459 8.000000 0.000000 1.000000 1.000000 6.000000 
85698.700012 446889.000000 9.440000 0.203144 0.156563 0.966551 8.000000 0.000000 1.000000 1.000000 6.000000 
85698.700012 446888.000000 9.690000 0.178885 0.033906 0.983285 8.000000 0.000000 1.000000 1.000000 6.000000 
85698.799988 446891.000000 7.877000 0.183596 0.400442 0.897741 8.000000 0.000000 1.000000 1.000000 6.000000 
85699.100006 446895.000000 4.101000 0.122674 0.607460 0.784821 9.000000 0.000000 1.000000 1.000000 6.000000 
85698.600006 446888.000000 9.455000 0.173169 0.031380 0.984392 8.000000 0.000000 1.000000 1.000000 6.000000 
85698.799988 446891.000000 7.589000 0.180590 0.403077 0.897171 8.000000 0.000000 1.000000 1.000000 6.000000 
85698.600006 446888.000000 9.410000 0.173169 0.031380 0.984392 8.000000 0.000000 1.000000 1.000000 6.000000 
85698.500000 446886.000000 8.724000 0.145677 -0.153148 0.977407 8.000000 0.000000 1.000000 1.000000 6.000000 
85698.799988 446890.000000 8.518000 0.207139 0.276649 0.938381 8.000000 0.000000 1.000000 1.000000 6.000000 
85698.399994 446886.000000 8.511000 0.140455 -0.152884 0.978212 8.000000 0.000000 1.000000 1.000000 6.000000 
85698.299988 446885.000000 7.994000 0.071151 -0.301421 0.950833 8.000000 0.000000 1.000000 1.000000 6.000000 
85698.299988 446885.000000 7.738000 0.065896 -0.306222 0.949677 8.000000 0.000000 1.000000 1.000000 6.000000 
85698.899994 446892.000000 6.634000 0.147741 0.495884 0.855729 9.000000 0.000000 1.000000 1.000000 6.000000 
85698.200012 446885.000000 7.553000 0.061093 -0.328865 0.942399 8.000000 0.000000 1.000000 1.000000 6.000000 
85698.100006 446884.000000 7.003000 0.001353 -0.542465 0.840077 7.000000 0.000000 1.000000 1.000000 6.000000 
85698.200012 446884.000000 7.204000 0.006721 -0.512110 0.858893 8.000000 0.000000 1.000000 1.000000 6.000000 
85698.600006 446887.000000 9.240000 0.179757 -0.055951 0.982119 8.000000 0.000000 1.000000 1.000000 6.000000 
85698.000000 446884.000000 3.177000 0.329569 0.893267 -0.305709 7.000000 0.000000 2.000000 2.000000 6.000000 
85699.000000 446894.000000 5.059000 0.123022 0.612146 0.781116 9.000000 0.000000 1.000000 1.000000 6.000000 
85698.100006 446883.000000 6.655000 -0.067928 -0.689396 0.721192 7.000000 0.000000 1.000000 1.000000 6.000000 
85697.799988 446883.000000 0.528000 0.393543 0.918266 0.043727 7.000000 0.000000 3.000000 2.000000 6.000000 
85699.000000 446893.000000 6.003000 0.134282 0.562212 0.816019 9.000000 0.000000 1.000000 1.000000 6.000000 
85698.399994 446886.000000 8.368000 0.140455 -0.152884 0.978212 8.000000 0.000000 1.000000 1.000000 6.000000 
85698.399994 446885.000000 8.185000 0.076484 -0.302048 0.950220 8.000000 0.000000 1.000000 1.000000 6.000000 
85698.100006 446883.000000 6.838000 -0.070945 -0.687737 0.722485 7.000000 0.000000 2.000000 1.000000 6.000000 
85698.200012 446884.000000 7.360000 0.014776 -0.484905 0.874442 8.000000 0.000000 1.000000 1.000000 6.000000 
85698.000000 446883.000000 6.556000 0.083141 0.719094 -0.689922 7.000000 0.000000 3.000000 1.000000 6.000000 
85699.000000 446894.000000 5.376000 0.123022 0.612146 0.781116 9.000000 0.000000 1.000000 1.000000 6.000000 
85698.500000 446887.000000 9.068000 0.182760 -0.043627 0.982189 8.000000 0.000000 1.000000 1.000000 6.000000 
85698.500000 446887.000000 8.906000 0.183829 -0.033956 0.982372 8.000000 0.000000 1.000000 1.000000 6.000000 
85698.899994 446892.000000 7.251000 0.150874 0.487776 0.859833 8.000000 0.000000 1.000000 1.000000 6.000000 
85698.700012 446889.000000 9.108000 0.206570 0.159800 0.965294 8.000000 0.000000 1.000000 1.000000 6.000000 
85698.600006 446895.000000 4.821000 0.132173 0.604433 0.785615 9.000000 0.000000 1.000000 1.000000 6.000000 
85698.700012 446896.000000 3.595000 0.124668 0.558805 0.819875 9.000000 0.000000 2.000000 1.000000 6.000000 
85698.600006 446893.000000 5.770000 0.140642 0.561086 0.815722 9.000000 0.000000 1.000000 1.000000 6.000000 
85698.700012 446895.000000 4.515000 0.129110 0.598060 0.790983 9.000000 0.000000 1.000000 1.000000 6.000000 
85698.600006 446894.000000 5.103000 0.132619 0.612430 0.779321 9.000000 0.000000 1.000000 1.000000 6.000000 
85698.399994 446890.000000 8.588000 0.200236 0.274807 0.940418 8.000000 0.000000 1.000000 1.000000 6.000000 
85698.600006 446894.000000 5.411000 0.132552 0.609142 0.781906 9.000000 0.000000 1.000000 1.000000 6.000000 
85698.500000 446892.000000 7.008000 0.159898 0.482629 0.861105 9.000000 0.000000 1.000000 1.000000 6.000000 
85698.399994 446890.000000 8.275000 0.203567 0.272807 0.940285 8.000000 0.000000 1.000000 1.000000 6.000000 
85698.600006 446893.000000 6.091000 0.143669 0.555423 0.819063 9.000000 0.000000 1.000000 1.000000 6.000000 
85698.399994 446891.000000 7.962000 0.186332 0.394330 0.899880 8.000000 0.000000 1.000000 1.000000 6.000000 
85698.500000 446891.000000 7.328000 0.183064 0.393516 0.900907 8.000000 0.000000 1.000000 1.000000 6.000000 
85698.399994 446891.000000 7.628000 0.183541 0.394540 0.900361 8.000000 0.000000 1.000000 1.000000 6.000000 
85698.299988 446889.000000 9.513000 0.187536 0.149263 0.970850 8.000000 0.000000 1.000000 1.000000 6.000000 
85698.700012 446896.000000 3.882000 0.127861 0.559944 0.818605 9.000000 0.000000 1.000000 1.000000 6.000000 
85698.200012 446887.000000 9.191000 0.167069 -0.045564 0.984892 8.000000 0.000000 1.000000 1.000000 6.000000 
85698.000000 446886.000000 8.331000 0.134593 -0.151880 0.979192 8.000000 0.000000 1.000000 1.000000 6.000000 
85698.299988 446889.000000 9.203000 0.191342 0.152817 0.969554 8.000000 0.000000 1.000000 1.000000 6.000000 
85698.299988 446889.000000 8.894000 0.199819 0.150831 0.968154 8.000000 0.000000 1.000000 1.000000 6.000000 
85697.899994 446885.000000 7.665000 0.060602 -0.313325 0.947710 8.000000 0.000000 2.000000 1.000000 6.000000 
85698.500000 446892.000000 6.707000 0.157382 0.489798 0.857513 9.000000 0.000000 1.000000 1.000000 6.000000 
85698.200012 446888.000000 9.441000 0.165244 0.033511 0.985683 8.000000 0.000000 1.000000 1.000000 6.000000 
85697.899994 446885.000000 8.140000 0.063013 -0.304777 0.950337 8.000000 0.000000 1.000000 1.000000 6.000000 
85698.299988 446888.000000 9.633000 0.165621 0.033587 0.985617 8.000000 0.000000 1.000000 1.000000 6.000000 
85698.700012 446895.000000 4.188000 0.128881 0.599962 0.789579 9.000000 0.000000 1.000000 1.000000 6.000000 
85697.700012 446884.000000 6.987000 -0.015114 -0.575700 0.817521 7.000000 0.000000 1.000000 1.000000 6.000000 
85697.700012 446883.000000 6.635000 0.086201 0.723212 -0.685225 7.000000 0.000000 1.000000 1.000000 6.000000 
85698.100006 446886.000000 8.673000 0.137348 -0.152197 0.978760 8.000000 0.000000 1.000000 1.000000 6.000000 
85697.899994 446885.000000 7.867000 0.058032 -0.313373 0.947855 8.000000 0.000000 1.000000 1.000000 6.000000 
85697.799988 446885.000000 7.508000 0.058267 -0.324998 0.943918 8.000000 0.000000 1.000000 1.000000 6.000000 
85697.799988 446884.000000 7.163000 0.001349 -0.538096 0.842882 8.000000 0.000000 1.000000 1.000000 6.000000 
85698.100006 446887.000000 8.940000 0.165244 -0.033511 0.985683 8.000000 0.000000 1.000000 1.000000 6.000000 
85698.500000 446893.000000 6.399000 0.147050 0.551067 0.821402 9.000000 0.000000 1.000000 1.000000 6.000000 
85698.100006 446887.000000 8.849000 0.166766 -0.026452 0.985642 8.000000 0.000000 1.000000 1.000000 6.000000 
85698.200012 446888.000000 9.377000 0.165244 0.033511 0.985683 8.000000 0.000000 1.000000 1.000000 6.000000 
85697.799988 446885.000000 4.020000 -0.196249 -0.730911 0.653648 8.000000 0.000000 2.000000 2.000000 6.000000 
85697.700012 446883.000000 6.775000 -0.070962 -0.696582 0.713960 7.000000 0.000000 1.000000 1.000000 6.000000 
85697.799988 446884.000000 7.352000 0.006714 -0.508944 0.860773 8.000000 0.000000 1.000000 1.000000 6.000000 
85698.000000 446886.000000 8.449000 0.134593 -0.151880 0.979192 8.000000 0.000000 1.000000 1.000000 6.000000 
85698.200012 446895.000000 4.582000 0.138338 0.593517 0.792843 9.000000 0.000000 1.000000 1.000000 6.000000 
85698.200012 446895.000000 4.263000 0.135017 0.589032 0.796751 9.000000 0.000000 1.000000 1.000000 6.000000 
85698.100006 446894.000000 5.231000 0.145238 0.612394 0.777097 9.000000 0.000000 1.000000 1.000000 6.000000 
85698.200012 446896.000000 3.908000 0.137082 0.549804 0.823969 9.000000 0.000000 1.000000 1.000000 6.000000 
85698.100006 446893.000000 6.130000 0.159552 0.547250 0.821621 9.000000 0.000000 1.000000 1.000000 6.000000 
85698.000000 446891.000000 7.418000 0.182525 0.386608 0.904002 8.000000 0.000000 1.000000 1.000000 6.000000 
85698.000000 446893.000000 6.458000 0.159679 0.541714 0.825256 9.000000 0.000000 1.000000 1.000000 6.000000 
85698.299988 446896.000000 3.587000 0.134079 0.546628 0.826572 9.000000 0.000000 1.000000 1.000000 6.000000 
85697.899994 446890.000000 8.655000 0.190068 0.266642 0.944869 8.000000 0.000000 1.000000 1.000000 6.000000 
85698.000000 446891.000000 7.722000 0.179544 0.389251 0.903464 8.000000 0.000000 1.000000 1.000000 6.000000 
85697.899994 446889.000000 8.971000 0.187536 0.149263 0.970850 8.000000 0.000000 1.000000 1.000000 6.000000 
85697.899994 446890.000000 8.331000 0.187430 0.266779 0.945357 8.000000 0.000000 1.000000 1.000000 6.000000 
85698.000000 446892.000000 6.788000 0.162802 0.476671 0.863875 9.000000 0.000000 1.000000 1.000000 6.000000 
85697.799988 446888.000000 9.570000 0.152576 0.033269 0.987732 8.000000 0.000000 1.000000 1.000000 6.000000 
85697.600006 446887.000000 8.805000 0.148678 -0.026104 0.988541 8.000000 0.000000 1.000000 1.000000 6.000000 
85698.100006 446893.000000 5.812000 0.150440 0.555584 0.817737 9.000000 0.000000 1.000000 1.000000 6.000000 
85698.000000 446892.000000 7.113000 0.163215 0.477882 0.863128 9.000000 0.000000 1.000000 1.000000 6.000000 
85697.500000 446886.000000 8.291000 0.121217 -0.153052 0.980756 8.000000 0.000000 1.000000 1.000000 6.000000 
85697.600006 446886.000000 8.621000 0.126389 -0.150930 0.980432 8.000000 0.000000 1.000000 1.000000 6.000000 
85697.500000 446885.000000 8.119000 0.057937 -0.310284 0.948877 8.000000 0.000000 1.000000 1.000000 6.000000 
85697.799988 446888.000000 9.421000 0.152911 0.035641 0.987597 8.000000 0.000000 1.000000 1.000000 6.000000 
85697.799988 446889.000000 9.265000 0.176346 0.148435 0.973072 8.000000 0.000000 1.000000 1.000000 6.000000 
85697.799988 446889.000000 9.588000 0.175608 0.142760 0.974054 8.000000 0.000000 1.000000 1.000000 6.000000 
85697.500000 446886.000000 8.407000 0.121217 -0.153052 0.980756 8.000000 0.000000 1.000000 1.000000 6.000000 
85697.399994 446885.000000 7.818000 0.057796 -0.309528 0.949132 8.000000 0.000000 1.000000 1.000000 6.000000 
85697.200012 446885.000000 3.318000 0.290634 0.871902 -0.394106 8.000000 0.000000 2.000000 2.000000 6.000000 
85697.899994 446891.000000 8.031000 0.176042 0.385002 0.905971 8.000000 0.000000 1.000000 1.000000 6.000000 
85697.299988 446884.000000 7.106000 -0.015104 -0.572567 0.819719 8.000000 0.000000 2.000000 1.000000 6.000000 
85697.200012 446884.000000 3.250000 0.297713 0.913470 -0.277381 8.000000 0.000000 2.000000 2.000000 6.000000 
85697.700012 446887.000000 9.159000 0.150322 -0.035572 0.987997 8.000000 0.000000 1.000000 1.000000 6.000000 
85697.600006 446887.000000 8.922000 0.148678 -0.026104 0.988541 8.000000 0.000000 1.000000 1.000000 6.000000 
85697.200012 446885.000000 4.025000 0.219384 0.757730 -0.614586 8.000000 0.000000 2.000000 2.000000 6.000000 
85697.200012 446884.000000 6.937000 -0.032239 -0.609733 0.791951 7.000000 0.000000 1.000000 1.000000 6.000000 
85697.000000 446884.000000 0.793000 0.388341 0.921508 -0.003845 7.000000 0.000000 3.000000 2.000000 6.000000 
85697.399994 446885.000000 7.490000 0.048333 -0.354003 0.933994 8.000000 0.000000 2.000000 1.000000 6.000000 
85697.700012 446888.000000 9.341000 0.150322 0.035572 0.987997 8.000000 0.000000 1.000000 1.000000 6.000000 
85698.100006 446894.000000 5.493000 0.145504 0.610518 0.778522 9.000000 0.000000 1.000000 1.000000 6.000000 
85697.200012 446883.000000 6.724000 0.098553 0.731057 -0.675161 7.000000 0.000000 3.000000 1.000000 6.000000 
85698.200012 446895.000000 4.894000 0.138746 0.598247 0.789209 9.000000 0.000000 1.000000 1.000000 6.000000 
85697.299988 446884.000000 7.267000 -0.006779 -0.543688 0.839260 8.000000 0.000000 2.000000 1.000000 6.000000 
85697.399994 446885.000000 7.634000 0.050433 -0.329757 0.942718 8.000000 0.000000 1.000000 1.000000 6.000000 
85697.700012 446894.000000 5.310000 0.152002 0.609512 0.778068 9.000000 0.000000 1.000000 1.000000 6.000000 
85697.700012 446895.000000 5.043000 0.148296 0.591687 0.792411 9.000000 0.000000 1.000000 1.000000 6.000000 
85697.600006 446894.000000 5.620000 0.158535 0.608473 0.777578 9.000000 0.000000 1.000000 1.000000 6.000000 
85697.799988 446896.000000 3.732000 0.140084 0.544116 0.827233 9.000000 0.000000 1.000000 1.000000 6.000000 
85697.600006 446893.000000 6.261000 0.162986 0.542789 0.823903 9.000000 0.000000 1.000000 1.000000 6.000000 
85697.500000 446891.000000 7.512000 0.175778 0.381568 0.907474 8.000000 0.000000 1.000000 1.000000 6.000000 
85697.600006 446893.000000 6.551000 0.165755 0.539076 0.825786 9.000000 0.000000 1.000000 1.000000 6.000000 
85697.500000 446891.000000 8.149000 0.175513 0.378138 0.908959 8.000000 0.000000 1.000000 1.000000 6.000000 
85697.799988 446896.000000 4.053000 0.140426 0.545446 0.826299 9.000000 0.000000 1.000000 1.000000 6.000000 
85697.500000 446892.000000 7.183000 0.162650 0.467437 0.868935 9.000000 0.000000 1.000000 1.000000 6.000000 
85697.500000 446891.000000 7.831000 0.173006 0.381758 0.907926 8.000000 0.000000 1.000000 1.000000 6.000000 
85697.399994 446890.000000 8.730000 0.183152 0.259126 0.948319 8.000000 0.000000 1.000000 1.000000 6.000000 
85697.600006 446893.000000 5.947000 0.160073 0.552027 0.818317 9.000000 0.000000 1.000000 1.000000 6.000000 
85697.700012 446895.000000 4.656000 0.144930 0.587191 0.796368 9.000000 0.000000 1.000000 1.000000 6.000000 
85697.299988 446889.000000 9.707000 0.163422 0.138472 0.976790 8.000000 0.000000 1.000000 1.000000 6.000000 
85697.399994 446889.000000 9.043000 0.172669 0.144941 0.974257 8.000000 0.000000 1.000000 1.000000 6.000000 
85697.200012 446887.000000 8.937000 0.139147 -0.028282 0.989868 8.000000 0.000000 1.000000 1.000000 6.000000 
85697.399994 446890.000000 8.465000 0.183968 0.263006 0.947092 8.000000 0.000000 1.000000 1.000000 6.000000 
85697.100006 446887.000000 8.747000 0.136021 -0.025855 0.990368 8.000000 0.000000 1.000000 1.000000 6.000000 
85697.100006 446886.000000 8.390000 0.100963 -0.161783 0.981648 8.000000 0.000000 1.000000 1.000000 6.000000 
85697.000000 446885.000000 8.047000 0.052503 -0.311178 0.948900 8.000000 0.000000 1.000000 1.000000 6.000000 
85697.700012 446895.000000 4.306000 0.144838 0.583833 0.798850 9.000000 0.000000 2.000000 1.000000 6.000000 
85696.899994 446885.000000 7.413000 0.035328 -0.378142 0.925073 8.000000 0.000000 1.000000 1.000000 6.000000 
85697.299988 446888.000000 9.501000 0.139743 0.035220 0.989561 8.000000 0.000000 1.000000 1.000000 6.000000 
85697.100006 446886.000000 8.570000 0.103164 -0.158993 0.981875 8.000000 0.000000 1.000000 1.000000 6.000000 
85696.799988 446884.000000 6.835000 -0.061677 -0.658367 0.750166 7.000000 0.000000 2.000000 1.000000 6.000000 
85697.200012 446887.000000 9.091000 0.141991 -0.030670 0.989393 8.000000 0.000000 1.000000 1.000000 6.000000 
85696.799988 446884.000000 7.248000 -0.031999 -0.580151 0.813880 8.000000 0.000000 1.000000 1.000000 6.000000 
85697.399994 446889.000000 9.362000 0.167010 0.141896 0.975691 8.000000 0.000000 1.000000 1.000000 6.000000 
85697.000000 446886.000000 8.213000 0.100521 -0.158654 0.982204 8.000000 0.000000 1.000000 1.000000 6.000000 
85697.200012 446888.000000 9.249000 0.143856 0.044883 0.988580 8.000000 0.000000 1.000000 1.000000 6.000000 
85697.299988 446888.000000 9.429000 0.142921 0.037731 0.989015 8.000000 0.000000 1.000000 1.000000 6.000000 
85696.899994 446885.000000 7.599000 0.037589 -0.353856 0.934544 8.000000 0.000000 1.000000 1.000000 6.000000 
85697.600006 446892.000000 6.860000 0.165695 0.470691 0.866600 9.000000 0.000000 1.000000 1.000000 6.000000 
85696.899994 446885.000000 7.749000 0.044800 -0.321281 0.945924 8.000000 0.000000 1.000000 1.000000 6.000000 
85696.799988 446884.000000 7.034000 -0.043766 -0.619783 0.783552 8.000000 0.000000 1.000000 1.000000 6.000000 
85697.299988 446895.000000 4.783000 0.157624 0.586961 0.794123 9.000000 0.000000 2.000000 1.000000 6.000000 
85697.200012 446893.000000 6.039000 0.162855 0.548329 0.820252 9.000000 0.000000 1.000000 1.000000 6.000000 
85697.299988 446894.000000 5.689000 0.161773 0.606272 0.778629 9.000000 0.000000 1.000000 1.000000 6.000000 
85697.299988 446895.000000 5.083000 0.158000 0.588363 0.793010 9.000000 0.000000 1.000000 1.000000 6.000000 
85697.200012 446892.000000 6.671000 0.165502 0.467212 0.868517 9.000000 0.000000 1.000000 1.000000 6.000000 
85697.100006 446891.000000 7.572000 0.169350 0.379969 0.909365 8.000000 0.000000 1.000000 1.000000 6.000000 
85697.100006 446892.000000 7.270000 0.162264 0.460478 0.872715 8.000000 0.000000 1.000000 1.000000 6.000000 
85697.299988 446894.000000 5.383000 0.161773 0.606272 0.778629 9.000000 0.000000 1.000000 1.000000 6.000000 
85697.200012 446893.000000 6.330000 0.165755 0.539076 0.825786 9.000000 0.000000 1.000000 1.000000 6.000000 
85697.200012 446892.000000 6.970000 0.162045 0.462777 0.871538 9.000000 0.000000 1.000000 1.000000 6.000000 
85697.100006 446890.000000 8.521000 0.177442 0.258713 0.949517 8.000000 0.000000 1.000000 1.000000 6.000000 
85697.299988 446895.000000 4.381000 0.154126 0.579095 0.800558 9.000000 0.000000 2.000000 1.000000 6.000000 
85697.000000 446890.000000 8.851000 0.173713 0.251817 0.952057 8.000000 0.000000 1.000000 1.000000 6.000000 
85696.899994 446888.000000 9.441000 0.131063 0.044447 0.990377 8.000000 0.000000 1.000000 1.000000 6.000000 
85696.899994 446888.000000 9.398000 0.133302 0.044434 0.990079 8.000000 0.000000 1.000000 1.000000 6.000000 
85697.399994 446896.000000 3.593000 0.146200 0.536066 0.831420 9.000000 0.000000 2.000000 1.000000 6.000000 
85697.100006 446891.000000 8.219000 0.168836 0.373142 0.912283 8.000000 0.000000 1.000000 1.000000 6.000000 
85697.399994 446896.000000 3.812000 0.146326 0.539486 0.829183 9.000000 0.000000 1.000000 1.000000 6.000000 
85696.799988 446887.000000 8.872000 0.129088 -0.030308 0.991170 8.000000 0.000000 1.000000 1.000000 6.000000 
85697.000000 446889.000000 9.168000 0.164106 0.144062 0.975866 8.000000 0.000000 1.000000 1.000000 6.000000 
85697.100006 446891.000000 7.900000 0.169532 0.377530 0.910346 8.000000 0.000000 1.000000 1.000000 6.000000 
85697.000000 446889.000000 9.472000 0.160600 0.138191 0.977298 8.000000 0.000000 1.000000 1.000000 6.000000 
85696.600006 446885.000000 7.936000 0.036981 -0.325178 0.944929 8.000000 0.000000 1.000000 1.000000 6.000000 
85696.500000 446885.000000 7.545000 0.027142 -0.368355 0.929289 8.000000 0.000000 2.000000 1.000000 6.000000 
85696.799988 446887.000000 9.003000 0.126333 -0.025714 0.991655 8.000000 0.000000 1.000000 1.000000 6.000000 
85696.700012 446886.000000 8.361000 0.088023 -0.162783 0.982728 8.000000 0.000000 1.000000 1.000000 6.000000 
85697.000000 446889.000000 9.676000 0.157512 0.132707 0.978560 8.000000 0.000000 1.000000 1.000000 6.000000 
85696.600006 446885.000000 7.699000 0.034726 -0.345974 0.937601 8.000000 0.000000 1.000000 1.000000 6.000000 
85696.399994 446885.000000 3.634000 0.252825 0.867478 -0.428440 8.000000 0.000000 2.000000 2.000000 6.000000 
85697.399994 446896.000000 4.096000 0.146326 0.539486 0.829183 9.000000 0.000000 1.000000 1.000000 6.000000 
85696.200012 446884.000000 0.550000 0.323987 0.943103 0.074766 7.000000 0.000000 1.000000 1.000000 6.000000 
85696.399994 446884.000000 6.920000 -0.079834 -0.669152 0.738825 7.000000 0.000000 1.000000 1.000000 6.000000 
85696.899994 446888.000000 9.223000 0.134471 0.051720 0.989567 8.000000 0.000000 1.000000 1.000000 6.000000 
85696.799988 446887.000000 8.700000 0.131311 -0.025813 0.991005 8.000000 0.000000 1.000000 1.000000 6.000000 
85696.600006 446886.000000 8.180000 0.085765 -0.167905 0.982065 8.000000 0.000000 1.000000 1.000000 6.000000 
85696.500000 446884.000000 7.364000 -0.034741 -0.557248 0.829619 8.000000 0.000000 2.000000 1.000000 6.000000 
85696.399994 446885.000000 4.027000 0.227037 0.798491 -0.557554 8.000000 0.000000 2.000000 2.000000 6.000000 
85696.700012 446886.000000 8.522000 0.085730 -0.170252 0.981664 8.000000 0.000000 1.000000 1.000000 6.000000 
85696.500000 446884.000000 7.198000 -0.043706 -0.599201 0.799405 8.000000 0.000000 1.000000 1.000000 6.000000 
85697.100006 446896.000000 3.873000 0.149692 0.535039 0.831460 9.000000 0.000000 1.000000 1.000000 6.000000 
85697.100006 446894.000000 5.145000 0.165018 0.604055 0.779671 9.000000 0.000000 1.000000 1.000000 6.000000 
85697.000000 446894.000000 5.783000 0.164928 0.600703 0.782275 9.000000 0.000000 1.000000 1.000000 6.000000 
85697.100006 446895.000000 4.501000 0.160623 0.577943 0.800114 9.000000 0.000000 2.000000 1.000000 6.000000 
85697.000000 446893.000000 6.406000 0.162447 0.538011 0.827137 9.000000 0.000000 1.000000 1.000000 6.000000 
85696.799988 446891.000000 7.954000 0.165822 0.369911 0.914149 8.000000 0.000000 1.000000 1.000000 6.000000 
85696.899994 446892.000000 6.744000 0.161850 0.459305 0.873409 9.000000 0.000000 1.000000 1.000000 6.000000 
85697.100006 446896.000000 4.185000 0.153097 0.539556 0.827914 9.000000 0.000000 1.000000 1.000000 6.000000 
85696.799988 446890.000000 8.593000 0.170865 0.256971 0.951195 8.000000 0.000000 1.000000 1.000000 6.000000 
85697.000000 446893.000000 6.082000 0.163122 0.546234 0.821596 9.000000 0.000000 1.000000 1.000000 6.000000 
85696.700012 446889.000000 9.573000 0.155365 0.137964 0.978176 8.000000 0.000000 1.000000 1.000000 6.000000 
85696.899994 446891.000000 7.657000 0.166331 0.376733 0.911266 8.000000 0.000000 1.000000 1.000000 6.000000 
85696.700012 446889.000000 9.536000 0.155365 0.137964 0.978176 8.000000 0.000000 1.000000 1.000000 6.000000 
85696.799988 446890.000000 8.912000 0.167821 0.256431 0.951882 8.000000 0.000000 1.000000 1.000000 6.000000 
85696.600006 446888.000000 9.367000 0.130498 0.039717 0.990653 8.000000 0.000000 1.000000 1.000000 6.000000 
