ply
format ascii 1.0
comment Created by CloudCompare v2.11.1 (Anoia)
comment Created 21/05/2021 09:39
obj_info Generated by CloudCompare!
element vertex 301
property double x
property double y
property double z
property float nx
property float ny
property float nz
property float scalar_Point_Source_ID
property float scalar_User_Data
property float scalar_Scan_Angle_Rank
property float scalar_Flightline_Edge
property float scalar_Number_of_Returns
property float scalar_Return_Number
property float scalar_Time
property float scalar_Intensity
property float scalar_Classification
end_header
84359.099976 445537.000000 5.854000 0.142599 -0.037646 0.989064 57134.000000 2.000000 29.000000 0.000000 1.000000 1.000000 234213.000000 102.000000 6.000000 
84359.099976 445537.000000 5.500000 0.164518 -0.028762 0.985955 57134.000000 2.000000 29.000000 0.000000 1.000000 1.000000 234213.000000 93.000000 6.000000 
84359.099976 445537.000000 5.163000 0.180759 -0.029155 0.983095 57134.000000 2.000000 29.000000 0.000000 1.000000 1.000000 234213.000000 98.000000 6.000000 
84359.099976 445538.000000 4.792000 0.171166 0.070621 0.982708 57134.000000 2.000000 29.000000 0.000000 1.000000 1.000000 234213.000000 100.000000 6.000000 
84359.099976 445538.000000 4.586000 0.176637 0.070895 0.981719 57134.000000 2.000000 29.000000 0.000000 1.000000 1.000000 234213.000000 110.000000 6.000000 
84358.800049 445540.000000 7.052000 0.062325 0.062325 0.996108 57134.000000 2.000000 29.000000 0.000000 2.000000 1.000000 234213.000000 65.000000 6.000000 
84358.900024 445539.000000 6.304000 0.082838 0.085108 0.992922 57134.000000 2.000000 29.000000 0.000000 2.000000 2.000000 234213.000000 13.000000 6.000000 
84358.800049 445540.000000 6.955000 0.060024 0.060024 0.996391 57134.000000 2.000000 29.000000 0.000000 1.000000 1.000000 234213.000000 93.000000 6.000000 
84358.800049 445540.000000 6.961000 0.060024 0.060024 0.996391 57134.000000 2.000000 29.000000 0.000000 1.000000 1.000000 234213.000000 115.000000 6.000000 
84358.800049 445541.000000 6.976000 0.083985 0.035993 0.995817 57134.000000 2.000000 29.000000 0.000000 1.000000 1.000000 234213.000000 113.000000 6.000000 
84358.800049 445541.000000 6.967000 0.083985 0.035993 0.995817 57134.000000 2.000000 29.000000 0.000000 1.000000 1.000000 234213.000000 105.000000 6.000000 
84358.800049 445542.000000 6.974000 0.116399 0.003264 0.993197 57134.000000 2.000000 29.000000 0.000000 1.000000 1.000000 234213.000000 111.000000 6.000000 
84358.699951 445542.000000 7.082000 0.111142 0.001079 0.993804 57134.000000 2.000000 29.000000 0.000000 1.000000 1.000000 234213.000000 140.000000 6.000000 
84358.699951 445543.000000 6.869000 0.172344 0.010272 0.984983 57134.000000 2.000000 29.000000 0.000000 1.000000 1.000000 234213.000000 132.000000 6.000000 
84358.699951 445543.000000 6.499000 0.177962 0.012630 0.983956 57134.000000 2.000000 29.000000 0.000000 1.000000 1.000000 234213.000000 101.000000 6.000000 
84358.800049 445543.000000 6.179000 0.215698 0.029793 0.976005 57134.000000 2.000000 29.000000 0.000000 1.000000 1.000000 234213.000000 101.000000 6.000000 
84358.800049 445543.000000 5.817000 0.230716 0.035030 0.972390 57134.000000 2.000000 29.000000 0.000000 1.000000 1.000000 234213.000000 102.000000 6.000000 
84358.800049 445543.000000 5.468000 0.265367 0.046097 0.963045 57134.000000 2.000000 29.000000 0.000000 1.000000 1.000000 234213.000000 103.000000 6.000000 
84358.800049 445544.000000 5.134000 0.392106 0.151463 0.907365 57134.000000 2.000000 28.000000 0.000000 1.000000 1.000000 234213.000000 101.000000 6.000000 
84358.800049 445544.000000 4.747000 0.417795 0.159365 0.894455 57134.000000 2.000000 28.000000 0.000000 1.000000 1.000000 234213.000000 100.000000 6.000000 
84358.800049 445544.000000 4.660000 0.421240 0.159582 0.892799 57134.000000 2.000000 28.000000 0.000000 1.000000 1.000000 234213.000000 135.000000 6.000000 
84358.800049 445544.000000 4.226000 0.460787 0.175187 0.870049 57134.000000 2.000000 28.000000 0.000000 3.000000 1.000000 234213.000000 8.000000 6.000000 
84359.000000 445544.000000 2.948000 0.648536 0.226597 0.726673 57134.000000 2.000000 28.000000 0.000000 3.000000 2.000000 234213.000000 48.000000 6.000000 
84359.000000 445544.000000 2.438000 0.725754 0.251405 0.640372 57134.000000 2.000000 28.000000 0.000000 3.000000 3.000000 234213.000000 10.000000 6.000000 
84359.099976 445544.000000 1.633000 0.838164 0.346232 0.421432 57134.000000 2.000000 28.000000 0.000000 2.000000 1.000000 234213.000000 43.000000 6.000000 
84359.099976 445543.000000 0.867000 0.785614 0.448691 0.426013 57134.000000 2.000000 28.000000 0.000000 2.000000 2.000000 234213.000000 87.000000 6.000000 
84359.099976 445544.000000 0.810000 0.797553 0.473397 0.373903 57134.000000 2.000000 28.000000 0.000000 2.000000 1.000000 234213.000000 49.000000 6.000000 
84359.300049 445542.000000 -1.167000 0.888460 0.397663 0.229137 57134.000000 2.000000 28.000000 0.000000 2.000000 2.000000 234213.000000 154.000000 6.000000 
84359.199951 445544.000000 0.261000 0.808412 0.417813 0.414611 57134.000000 2.000000 28.000000 0.000000 2.000000 2.000000 234213.000000 31.000000 6.000000 
84360.099976 445522.000000 4.235000 -0.062554 -0.026506 0.997690 57134.000000 2.000000 31.000000 1.000000 1.000000 1.000000 234213.000000 100.000000 6.000000 
84360.099976 445522.000000 4.229000 -0.062554 -0.026506 0.997690 57134.000000 2.000000 31.000000 0.000000 1.000000 1.000000 234213.000000 105.000000 6.000000 
84360.099976 445523.000000 4.232000 -0.046863 -0.019787 0.998705 57134.000000 2.000000 31.000000 0.000000 1.000000 1.000000 234213.000000 79.000000 6.000000 
84360.099976 445523.000000 4.225000 -0.046863 -0.019787 0.998705 57134.000000 2.000000 30.000000 0.000000 1.000000 1.000000 234213.000000 104.000000 6.000000 
84360.000000 445523.000000 4.235000 -0.051125 -0.019824 0.998496 57134.000000 2.000000 30.000000 0.000000 1.000000 1.000000 234213.000000 76.000000 6.000000 
84359.900024 445524.000000 5.114000 -0.044599 -0.019707 0.998811 57134.000000 2.000000 30.000000 0.000000 2.000000 1.000000 234213.000000 15.000000 6.000000 
84360.000000 445524.000000 4.229000 -0.029546 -0.013245 0.999476 57134.000000 2.000000 30.000000 0.000000 2.000000 2.000000 234213.000000 62.000000 6.000000 
84359.900024 445525.000000 5.089000 -0.023387 -0.019320 0.999540 57134.000000 2.000000 30.000000 0.000000 1.000000 1.000000 234213.000000 206.000000 6.000000 
84359.900024 445525.000000 5.020000 -0.025523 -0.019398 0.999486 57134.000000 2.000000 30.000000 0.000000 1.000000 1.000000 234213.000000 102.000000 6.000000 
84360.000000 445525.000000 4.278000 -0.015072 -0.015072 0.999773 57134.000000 2.000000 30.000000 0.000000 1.000000 1.000000 234213.000000 116.000000 6.000000 
84359.900024 445526.000000 4.239000 0.005103 -0.041842 0.999111 57134.000000 2.000000 30.000000 0.000000 1.000000 1.000000 234213.000000 107.000000 6.000000 
84359.900024 445526.000000 4.242000 0.005103 -0.041842 0.999111 57134.000000 2.000000 30.000000 0.000000 1.000000 1.000000 234213.000000 121.000000 6.000000 
84359.900024 445527.000000 4.225000 0.022708 -0.087587 0.995898 57134.000000 2.000000 30.000000 0.000000 1.000000 1.000000 234213.000000 106.000000 6.000000 
84359.900024 445527.000000 4.230000 0.022708 -0.087587 0.995898 57134.000000 2.000000 30.000000 0.000000 1.000000 1.000000 234213.000000 126.000000 6.000000 
84359.900024 445527.000000 4.227000 0.022708 -0.087587 0.995898 57134.000000 2.000000 30.000000 0.000000 1.000000 1.000000 234213.000000 87.000000 6.000000 
84359.800049 445528.000000 4.250000 0.031013 -0.159661 0.986685 57134.000000 2.000000 30.000000 0.000000 1.000000 1.000000 234213.000000 81.000000 6.000000 
84359.800049 445528.000000 4.255000 0.031013 -0.159661 0.986685 57134.000000 2.000000 30.000000 0.000000 1.000000 1.000000 234213.000000 103.000000 6.000000 
84359.800049 445529.000000 4.245000 0.034716 -0.216673 0.975627 57134.000000 2.000000 30.000000 0.000000 1.000000 1.000000 234213.000000 88.000000 6.000000 
84359.800049 445529.000000 4.228000 0.029862 -0.216201 0.975892 57134.000000 2.000000 30.000000 0.000000 1.000000 1.000000 234213.000000 101.000000 6.000000 
84359.800049 445530.000000 4.229000 0.038000 -0.251291 0.967165 57134.000000 2.000000 30.000000 0.000000 1.000000 1.000000 234213.000000 93.000000 6.000000 
84359.400024 445532.000000 7.425000 0.108987 -0.201689 0.973367 57134.000000 2.000000 30.000000 0.000000 1.000000 1.000000 234213.000000 244.000000 6.000000 
84359.500000 445532.000000 6.689000 0.110868 -0.190593 0.975388 57134.000000 2.000000 30.000000 0.000000 1.000000 1.000000 234213.000000 15.000000 6.000000 
84359.699951 445531.000000 4.236000 0.037665 -0.236928 0.970797 57134.000000 2.000000 30.000000 0.000000 1.000000 1.000000 234213.000000 70.000000 6.000000 
84359.599976 445532.000000 4.597000 0.072128 -0.201714 0.976785 57134.000000 2.000000 30.000000 0.000000 1.000000 1.000000 234213.000000 59.000000 6.000000 
84359.400024 445533.000000 7.106000 0.115489 -0.177579 0.977307 57134.000000 2.000000 30.000000 0.000000 1.000000 1.000000 234213.000000 177.000000 6.000000 
84359.400024 445534.000000 6.966000 0.120438 -0.175070 0.977162 57134.000000 2.000000 30.000000 0.000000 1.000000 1.000000 234213.000000 123.000000 6.000000 
84359.400024 445534.000000 6.944000 0.120438 -0.175070 0.977162 57134.000000 2.000000 30.000000 0.000000 1.000000 1.000000 234213.000000 102.000000 6.000000 
84359.300049 445535.000000 6.962000 0.121463 -0.155816 0.980290 57134.000000 2.000000 29.000000 0.000000 1.000000 1.000000 234213.000000 113.000000 6.000000 
84359.300049 445535.000000 6.953000 0.124225 -0.153744 0.980271 57134.000000 2.000000 29.000000 0.000000 1.000000 1.000000 234213.000000 105.000000 6.000000 
84359.300049 445536.000000 6.955000 0.138799 -0.114660 0.983661 57134.000000 2.000000 29.000000 0.000000 1.000000 1.000000 234213.000000 153.000000 6.000000 
84359.300049 445536.000000 7.072000 0.133704 -0.116840 0.984110 57134.000000 2.000000 29.000000 0.000000 1.000000 1.000000 234213.000000 209.000000 6.000000 
84359.300049 445536.000000 6.760000 0.136717 -0.117359 0.983634 57134.000000 2.000000 29.000000 0.000000 1.000000 1.000000 234213.000000 98.000000 6.000000 
84359.300049 445537.000000 6.370000 0.145806 -0.040183 0.988497 57134.000000 2.000000 29.000000 0.000000 1.000000 1.000000 234213.000000 102.000000 6.000000 
84359.300049 445537.000000 6.057000 0.150638 -0.040247 0.987769 57134.000000 2.000000 29.000000 0.000000 1.000000 1.000000 234213.000000 93.000000 6.000000 
84359.300049 445537.000000 5.741000 0.153581 -0.040416 0.987309 57134.000000 2.000000 29.000000 0.000000 1.000000 1.000000 234213.000000 101.000000 6.000000 
84359.300049 445537.000000 5.397000 0.183421 -0.031544 0.982528 57134.000000 2.000000 29.000000 0.000000 1.000000 1.000000 234213.000000 90.000000 6.000000 
84359.400024 445537.000000 5.046000 0.197380 -0.031912 0.979808 57134.000000 2.000000 29.000000 0.000000 1.000000 1.000000 234213.000000 88.000000 6.000000 
84359.400024 445538.000000 4.627000 0.206891 0.072228 0.975694 57134.000000 2.000000 29.000000 0.000000 1.000000 1.000000 234213.000000 105.000000 6.000000 
84359.400024 445538.000000 4.589000 0.207349 0.074842 0.975400 57134.000000 2.000000 29.000000 0.000000 1.000000 1.000000 234213.000000 80.000000 6.000000 
84359.099976 445540.000000 7.064000 0.069736 0.069736 0.995125 57134.000000 2.000000 29.000000 0.000000 1.000000 1.000000 234213.000000 97.000000 6.000000 
84359.099976 445540.000000 6.973000 0.067394 0.067394 0.995448 57134.000000 2.000000 29.000000 0.000000 1.000000 1.000000 234213.000000 84.000000 6.000000 
84359.099976 445541.000000 6.976000 0.093639 0.040760 0.994772 57134.000000 2.000000 29.000000 0.000000 1.000000 1.000000 234213.000000 110.000000 6.000000 
84359.099976 445541.000000 6.962000 0.096235 0.043140 0.994423 57134.000000 2.000000 29.000000 0.000000 1.000000 1.000000 234213.000000 116.000000 6.000000 
84359.000000 445542.000000 6.976000 0.129050 0.009927 0.991588 57134.000000 2.000000 29.000000 0.000000 1.000000 1.000000 234213.000000 115.000000 6.000000 
84359.000000 445542.000000 6.959000 0.137042 0.012256 0.990489 57134.000000 2.000000 29.000000 0.000000 1.000000 1.000000 234213.000000 120.000000 6.000000 
84359.000000 445542.000000 7.078000 0.119057 0.005461 0.992872 57134.000000 2.000000 29.000000 0.000000 1.000000 1.000000 234213.000000 180.000000 6.000000 
84359.000000 445543.000000 6.702000 0.196990 0.015153 0.980288 57134.000000 2.000000 29.000000 0.000000 1.000000 1.000000 234213.000000 102.000000 6.000000 
84359.000000 445543.000000 6.390000 0.214739 0.022542 0.976411 57134.000000 2.000000 29.000000 0.000000 1.000000 1.000000 234213.000000 83.000000 6.000000 
84359.000000 445543.000000 6.059000 0.239806 0.035301 0.970179 57134.000000 2.000000 29.000000 0.000000 1.000000 1.000000 234213.000000 96.000000 6.000000 
84359.000000 445543.000000 5.741000 0.257679 0.040686 0.965373 57134.000000 2.000000 29.000000 0.000000 1.000000 1.000000 234213.000000 89.000000 6.000000 
84359.099976 445544.000000 5.370000 0.414258 0.146627 0.898271 57134.000000 2.000000 28.000000 0.000000 1.000000 1.000000 234213.000000 97.000000 6.000000 
84359.199951 445543.000000 4.134000 0.442897 0.108264 0.890012 57134.000000 2.000000 28.000000 0.000000 2.000000 1.000000 234213.000000 23.000000 6.000000 
84359.300049 445543.000000 2.886000 0.627399 0.185612 0.756253 57134.000000 2.000000 28.000000 0.000000 2.000000 2.000000 234213.000000 23.000000 6.000000 
84359.300049 445543.000000 2.057000 0.736235 0.282676 0.614860 57134.000000 2.000000 28.000000 0.000000 1.000000 1.000000 234213.000000 49.000000 6.000000 
84359.500000 445542.000000 -0.017000 0.847921 0.366964 0.382580 57134.000000 2.000000 28.000000 0.000000 2.000000 1.000000 234213.000000 88.000000 6.000000 
84359.599976 445542.000000 -0.862000 0.888679 0.365926 0.276312 57134.000000 2.000000 28.000000 0.000000 1.000000 1.000000 234213.000000 76.000000 6.000000 
84360.500000 445521.000000 4.237000 -0.062816 -0.028747 0.997611 57134.000000 2.000000 31.000000 1.000000 1.000000 1.000000 234213.000000 81.000000 6.000000 
84360.500000 445521.000000 4.233000 -0.062816 -0.028747 0.997611 57134.000000 2.000000 31.000000 0.000000 1.000000 1.000000 234213.000000 92.000000 6.000000 
84360.400024 445522.000000 4.231000 -0.051336 -0.022001 0.998439 57134.000000 2.000000 31.000000 0.000000 1.000000 1.000000 234213.000000 74.000000 6.000000 
84360.400024 445522.000000 4.232000 -0.051336 -0.022001 0.998439 57134.000000 2.000000 31.000000 0.000000 1.000000 1.000000 234213.000000 88.000000 6.000000 
84360.400024 445523.000000 4.232000 -0.035798 -0.013296 0.999271 57134.000000 2.000000 30.000000 0.000000 1.000000 1.000000 234213.000000 102.000000 6.000000 
84360.400024 445523.000000 4.243000 -0.035798 -0.013296 0.999271 57134.000000 2.000000 30.000000 0.000000 1.000000 1.000000 234213.000000 74.000000 6.000000 
84360.300049 445524.000000 4.243000 -0.023202 -0.009079 0.999690 57134.000000 2.000000 30.000000 0.000000 1.000000 1.000000 234213.000000 62.000000 6.000000 
84360.300049 445524.000000 4.238000 -0.021142 -0.009061 0.999735 57134.000000 2.000000 30.000000 0.000000 1.000000 1.000000 234213.000000 83.000000 6.000000 
84360.300049 445525.000000 4.282000 -0.008954 -0.010944 0.999900 57134.000000 2.000000 30.000000 0.000000 1.000000 1.000000 234213.000000 121.000000 6.000000 
84360.300049 445525.000000 4.260000 -0.008954 -0.010944 0.999900 57134.000000 2.000000 30.000000 0.000000 1.000000 1.000000 234213.000000 88.000000 6.000000 
84360.300049 445526.000000 4.262000 0.007131 -0.035654 0.999339 57134.000000 2.000000 30.000000 0.000000 1.000000 1.000000 234213.000000 85.000000 6.000000 
84360.300049 445526.000000 4.237000 0.009187 -0.035726 0.999319 57134.000000 2.000000 30.000000 0.000000 1.000000 1.000000 234213.000000 102.000000 6.000000 
84360.199951 445526.000000 4.234000 0.009186 -0.037765 0.999244 57134.000000 2.000000 30.000000 0.000000 1.000000 1.000000 234213.000000 95.000000 6.000000 
84360.199951 445527.000000 4.228000 0.031374 -0.078975 0.996383 57134.000000 2.000000 30.000000 0.000000 1.000000 1.000000 234213.000000 103.000000 6.000000 
84360.199951 445527.000000 4.240000 0.031374 -0.078975 0.996383 57134.000000 2.000000 30.000000 0.000000 1.000000 1.000000 234213.000000 79.000000 6.000000 
84360.199951 445528.000000 4.238000 0.049799 -0.147080 0.987870 57134.000000 2.000000 30.000000 0.000000 1.000000 1.000000 234213.000000 98.000000 6.000000 
84360.199951 445528.000000 4.236000 0.049799 -0.147080 0.987870 57134.000000 2.000000 30.000000 0.000000 1.000000 1.000000 234213.000000 100.000000 6.000000 
84360.099976 445529.000000 4.238000 0.066814 -0.198014 0.977920 57134.000000 2.000000 30.000000 0.000000 1.000000 1.000000 234213.000000 111.000000 6.000000 
84360.099976 445529.000000 4.243000 0.066814 -0.198014 0.977920 57134.000000 2.000000 30.000000 0.000000 1.000000 1.000000 234213.000000 104.000000 6.000000 
84360.099976 445529.000000 4.247000 0.066814 -0.198014 0.977920 57134.000000 2.000000 30.000000 0.000000 1.000000 1.000000 234213.000000 93.000000 6.000000 
84360.099976 445530.000000 4.240000 0.086857 -0.235394 0.968011 57134.000000 2.000000 30.000000 0.000000 1.000000 1.000000 234213.000000 105.000000 6.000000 
84360.099976 445530.000000 4.252000 0.086857 -0.235394 0.968011 57134.000000 2.000000 30.000000 0.000000 1.000000 1.000000 234213.000000 100.000000 6.000000 
84360.000000 445531.000000 4.249000 0.078487 -0.227986 0.970496 57134.000000 2.000000 30.000000 0.000000 1.000000 1.000000 234213.000000 99.000000 6.000000 
84360.000000 445531.000000 4.264000 0.083889 -0.226627 0.970362 57134.000000 2.000000 30.000000 0.000000 1.000000 1.000000 234213.000000 89.000000 6.000000 
84360.000000 445532.000000 4.585000 0.129476 -0.184786 0.974213 57134.000000 2.000000 30.000000 0.000000 1.000000 1.000000 234213.000000 91.000000 6.000000 
84359.699951 445534.000000 6.995000 0.128503 -0.170921 0.976869 57134.000000 2.000000 30.000000 0.000000 1.000000 1.000000 234213.000000 190.000000 6.000000 
84359.699951 445534.000000 6.964000 0.128503 -0.170921 0.976869 57134.000000 2.000000 30.000000 0.000000 1.000000 1.000000 234213.000000 173.000000 6.000000 
84359.699951 445535.000000 6.967000 0.142650 -0.147612 0.978704 57134.000000 2.000000 29.000000 0.000000 1.000000 1.000000 234213.000000 100.000000 6.000000 
84359.599976 445535.000000 6.958000 0.137399 -0.149778 0.979126 57134.000000 2.000000 29.000000 0.000000 1.000000 1.000000 234213.000000 115.000000 6.000000 
84359.599976 445535.000000 6.958000 0.137399 -0.149778 0.979126 57134.000000 2.000000 29.000000 0.000000 1.000000 1.000000 234213.000000 133.000000 6.000000 
84359.599976 445536.000000 6.956000 0.146975 -0.112964 0.982668 57134.000000 2.000000 29.000000 0.000000 1.000000 1.000000 234213.000000 95.000000 6.000000 
84359.599976 445536.000000 6.991000 0.151765 -0.110485 0.982222 57134.000000 2.000000 29.000000 0.000000 1.000000 1.000000 234213.000000 120.000000 6.000000 
84359.599976 445536.000000 6.618000 0.150025 -0.115873 0.981869 57134.000000 2.000000 29.000000 0.000000 1.000000 1.000000 234213.000000 108.000000 6.000000 
84359.599976 445537.000000 6.303000 0.156533 -0.042902 0.986740 57134.000000 2.000000 29.000000 0.000000 1.000000 1.000000 234213.000000 91.000000 6.000000 
84359.599976 445537.000000 5.937000 0.161792 -0.043067 0.985885 57134.000000 2.000000 29.000000 0.000000 1.000000 1.000000 234213.000000 103.000000 6.000000 
84359.599976 445537.000000 5.618000 0.186934 -0.036446 0.981696 57134.000000 2.000000 29.000000 0.000000 1.000000 1.000000 234213.000000 89.000000 6.000000 
84359.699951 445537.000000 5.284000 0.208833 -0.034607 0.977339 57134.000000 2.000000 29.000000 0.000000 1.000000 1.000000 234213.000000 81.000000 6.000000 
84359.699951 445538.000000 4.930000 0.223618 0.067950 0.972305 57134.000000 2.000000 29.000000 0.000000 1.000000 1.000000 234213.000000 95.000000 6.000000 
84359.699951 445538.000000 4.590000 0.232271 0.070799 0.970071 57134.000000 2.000000 29.000000 0.000000 1.000000 1.000000 234213.000000 132.000000 6.000000 
84359.599976 445539.000000 5.631000 0.160012 0.111153 0.980837 57134.000000 2.000000 29.000000 0.000000 2.000000 1.000000 234213.000000 29.000000 6.000000 
84359.699951 445538.000000 4.656000 0.229918 0.070840 0.970628 57134.000000 2.000000 29.000000 0.000000 2.000000 2.000000 234213.000000 10.000000 6.000000 
84359.400024 445540.000000 6.977000 0.081974 0.075236 0.993791 57134.000000 2.000000 29.000000 0.000000 1.000000 1.000000 234213.000000 98.000000 6.000000 
84359.400024 445541.000000 6.966000 0.106370 0.048146 0.993160 57134.000000 2.000000 29.000000 0.000000 1.000000 1.000000 234213.000000 129.000000 6.000000 
84359.400024 445541.000000 6.973000 0.106607 0.048254 0.993130 57134.000000 2.000000 29.000000 0.000000 1.000000 1.000000 234213.000000 116.000000 6.000000 
84359.400024 445541.000000 6.972000 0.106607 0.048254 0.993130 57134.000000 2.000000 29.000000 0.000000 1.000000 1.000000 234213.000000 106.000000 6.000000 
84359.300049 445542.000000 6.970000 0.145182 0.016882 0.989261 57134.000000 2.000000 29.000000 0.000000 1.000000 1.000000 234213.000000 121.000000 6.000000 
84359.300049 445542.000000 6.973000 0.145182 0.016882 0.989261 57134.000000 2.000000 29.000000 0.000000 1.000000 1.000000 234213.000000 111.000000 6.000000 
84359.300049 445543.000000 6.963000 0.211493 0.022449 0.977122 57134.000000 2.000000 29.000000 0.000000 1.000000 1.000000 234213.000000 197.000000 6.000000 
84359.300049 445543.000000 6.619000 0.214243 0.022490 0.976521 57134.000000 2.000000 29.000000 0.000000 1.000000 1.000000 234213.000000 86.000000 6.000000 
84359.300049 445543.000000 6.238000 0.245544 0.035427 0.968738 57134.000000 2.000000 29.000000 0.000000 2.000000 1.000000 234213.000000 11.000000 6.000000 
84359.400024 445543.000000 5.360000 0.345354 0.064344 0.936264 57134.000000 2.000000 29.000000 0.000000 2.000000 2.000000 234213.000000 25.000000 6.000000 
84359.500000 445543.000000 4.302000 0.476022 0.127994 0.870070 57134.000000 2.000000 29.000000 0.000000 1.000000 1.000000 234213.000000 26.000000 6.000000 
84359.599976 445542.000000 2.921000 0.558873 0.203644 0.803859 57134.000000 2.000000 28.000000 0.000000 3.000000 1.000000 234213.000000 73.000000 6.000000 
84359.699951 445542.000000 2.189000 0.682961 0.283101 0.673364 57134.000000 2.000000 28.000000 0.000000 3.000000 2.000000 234213.000000 41.000000 6.000000 
84359.699951 445542.000000 1.704000 0.762147 0.319300 0.563187 57134.000000 2.000000 28.000000 0.000000 3.000000 3.000000 234213.000000 19.000000 6.000000 
84359.699951 445542.000000 1.561000 0.781072 0.328788 0.530872 57134.000000 2.000000 28.000000 0.000000 3.000000 1.000000 234213.000000 14.000000 6.000000 
84359.900024 445541.000000 -0.131000 0.879042 0.307135 0.364628 57134.000000 2.000000 28.000000 0.000000 3.000000 2.000000 234213.000000 29.000000 6.000000 
84359.900024 445541.000000 -0.579000 0.902485 0.317569 0.290981 57134.000000 2.000000 28.000000 0.000000 2.000000 1.000000 234213.000000 107.000000 6.000000 
84360.800049 445521.000000 4.235000 -0.051441 -0.024146 0.998384 57134.000000 2.000000 31.000000 1.000000 1.000000 1.000000 234213.000000 97.000000 6.000000 
84360.800049 445522.000000 4.234000 -0.044601 -0.017633 0.998849 57134.000000 2.000000 31.000000 0.000000 1.000000 1.000000 234213.000000 107.000000 6.000000 
84360.800049 445522.000000 4.236000 -0.044601 -0.017633 0.998849 57134.000000 2.000000 31.000000 0.000000 1.000000 1.000000 234213.000000 100.000000 6.000000 
84360.699951 445523.000000 4.231000 -0.031519 -0.009151 0.999461 57134.000000 2.000000 31.000000 0.000000 1.000000 1.000000 234213.000000 103.000000 6.000000 
84360.699951 445523.000000 4.237000 -0.031519 -0.009151 0.999461 57134.000000 2.000000 30.000000 0.000000 1.000000 1.000000 234213.000000 98.000000 6.000000 
84360.699951 445524.000000 4.233000 -0.016947 -0.004984 0.999844 57134.000000 2.000000 30.000000 0.000000 1.000000 1.000000 234213.000000 99.000000 6.000000 
84360.699951 445524.000000 4.242000 -0.016947 -0.004984 0.999844 57134.000000 2.000000 30.000000 0.000000 1.000000 1.000000 234213.000000 98.000000 6.000000 
84360.699951 445524.000000 4.235000 -0.016947 -0.004984 0.999844 57134.000000 2.000000 30.000000 0.000000 1.000000 1.000000 234213.000000 69.000000 6.000000 
84360.599976 445525.000000 4.242000 -0.004945 -0.006924 0.999964 57134.000000 2.000000 30.000000 0.000000 1.000000 1.000000 234213.000000 85.000000 6.000000 
84360.599976 445525.000000 4.236000 -0.004945 -0.006924 0.999964 57134.000000 2.000000 30.000000 0.000000 1.000000 1.000000 234213.000000 86.000000 6.000000 
84360.599976 445526.000000 4.280000 0.015283 -0.027509 0.999505 57134.000000 2.000000 30.000000 0.000000 1.000000 1.000000 234213.000000 91.000000 6.000000 
84360.599976 445526.000000 4.231000 0.017355 -0.027565 0.999469 57134.000000 2.000000 30.000000 0.000000 1.000000 1.000000 234213.000000 86.000000 6.000000 
84360.599976 445527.000000 4.242000 0.035418 -0.067617 0.997082 57134.000000 2.000000 30.000000 0.000000 1.000000 1.000000 234213.000000 80.000000 6.000000 
84360.500000 445527.000000 4.227000 0.035565 -0.070053 0.996909 57134.000000 2.000000 30.000000 0.000000 1.000000 1.000000 234213.000000 98.000000 6.000000 
84360.500000 445528.000000 4.232000 0.058995 -0.135342 0.989041 57134.000000 2.000000 30.000000 0.000000 1.000000 1.000000 234213.000000 102.000000 6.000000 
84360.500000 445528.000000 4.239000 0.058995 -0.135342 0.989041 57134.000000 2.000000 30.000000 0.000000 1.000000 1.000000 234213.000000 91.000000 6.000000 
84360.500000 445528.000000 4.220000 0.058995 -0.135342 0.989041 57134.000000 2.000000 30.000000 0.000000 1.000000 1.000000 234213.000000 89.000000 6.000000 
84360.500000 445529.000000 4.229000 0.086905 -0.189722 0.977984 57134.000000 2.000000 30.000000 0.000000 1.000000 1.000000 234213.000000 105.000000 6.000000 
84360.400024 445529.000000 4.241000 0.084637 -0.192581 0.977624 57134.000000 2.000000 30.000000 0.000000 1.000000 1.000000 234213.000000 99.000000 6.000000 
84360.400024 445530.000000 4.234000 0.108091 -0.227627 0.967731 57134.000000 2.000000 30.000000 0.000000 1.000000 1.000000 234213.000000 99.000000 6.000000 
84360.400024 445530.000000 4.232000 0.108091 -0.227627 0.967731 57134.000000 2.000000 30.000000 0.000000 1.000000 1.000000 234213.000000 111.000000 6.000000 
84360.400024 445531.000000 4.240000 0.126610 -0.216133 0.968120 57134.000000 2.000000 30.000000 0.000000 1.000000 1.000000 234213.000000 103.000000 6.000000 
84360.400024 445531.000000 4.253000 0.124092 -0.216202 0.968431 57134.000000 2.000000 30.000000 0.000000 1.000000 1.000000 234213.000000 112.000000 6.000000 
84360.300049 445532.000000 4.254000 0.151594 -0.179620 0.971986 57134.000000 2.000000 30.000000 0.000000 1.000000 1.000000 234213.000000 78.000000 6.000000 
84360.199951 445533.000000 5.829000 0.152838 -0.167995 0.973868 57134.000000 2.000000 30.000000 0.000000 3.000000 1.000000 234213.000000 24.000000 6.000000 
84360.199951 445533.000000 5.278000 0.179924 -0.156955 0.971078 57134.000000 2.000000 30.000000 0.000000 3.000000 2.000000 234213.000000 2.000000 6.000000 
84360.300049 445532.000000 4.689000 0.159587 -0.174907 0.971565 57134.000000 2.000000 30.000000 0.000000 3.000000 3.000000 234213.000000 16.000000 6.000000 
84360.000000 445534.000000 6.980000 0.144710 -0.167360 0.975218 57134.000000 2.000000 30.000000 0.000000 1.000000 1.000000 234213.000000 162.000000 6.000000 
84360.000000 445534.000000 6.973000 0.144710 -0.167360 0.975218 57134.000000 2.000000 30.000000 0.000000 1.000000 1.000000 234213.000000 112.000000 6.000000 
84360.000000 445535.000000 6.962000 0.166602 -0.141549 0.975811 57134.000000 2.000000 29.000000 0.000000 1.000000 1.000000 234213.000000 105.000000 6.000000 
84360.000000 445535.000000 6.963000 0.166602 -0.141549 0.975811 57134.000000 2.000000 29.000000 0.000000 1.000000 1.000000 234213.000000 98.000000 6.000000 
84360.000000 445536.000000 6.953000 0.171192 -0.109612 0.979121 57134.000000 2.000000 29.000000 0.000000 1.000000 1.000000 234213.000000 116.000000 6.000000 
84359.900024 445536.000000 6.975000 0.165559 -0.111599 0.979865 57134.000000 2.000000 29.000000 0.000000 1.000000 1.000000 234213.000000 126.000000 6.000000 
84359.900024 445536.000000 6.891000 0.165559 -0.111599 0.979865 57134.000000 2.000000 29.000000 0.000000 1.000000 1.000000 234213.000000 154.000000 6.000000 
84359.900024 445537.000000 6.543000 0.173179 -0.048302 0.983705 57134.000000 2.000000 29.000000 0.000000 1.000000 1.000000 234213.000000 96.000000 6.000000 
84360.000000 445537.000000 6.158000 0.185879 -0.046174 0.981487 57134.000000 2.000000 29.000000 0.000000 1.000000 1.000000 234213.000000 95.000000 6.000000 
84360.000000 445537.000000 5.838000 0.201915 -0.041817 0.978510 57134.000000 2.000000 29.000000 0.000000 1.000000 1.000000 234213.000000 91.000000 6.000000 
84360.000000 445537.000000 5.483000 0.230735 -0.032617 0.972470 57134.000000 2.000000 29.000000 0.000000 1.000000 1.000000 234213.000000 99.000000 6.000000 
84360.000000 445538.000000 5.150000 0.249322 0.068908 0.965966 57134.000000 2.000000 29.000000 0.000000 1.000000 1.000000 234213.000000 75.000000 6.000000 
84360.000000 445538.000000 4.805000 0.259384 0.074652 0.962885 57134.000000 2.000000 29.000000 0.000000 1.000000 1.000000 234213.000000 84.000000 6.000000 
84360.000000 445538.000000 4.578000 0.269055 0.075233 0.960182 57134.000000 2.000000 29.000000 0.000000 1.000000 1.000000 234213.000000 76.000000 6.000000 
84359.800049 445540.000000 7.082000 0.097655 0.086166 0.991483 57134.000000 2.000000 29.000000 0.000000 2.000000 1.000000 234213.000000 61.000000 6.000000 
84359.800049 445540.000000 6.466000 0.118697 0.095193 0.988357 57134.000000 2.000000 29.000000 0.000000 2.000000 2.000000 234213.000000 19.000000 6.000000 
84359.800049 445540.000000 6.978000 0.102437 0.086323 0.990987 57134.000000 2.000000 29.000000 0.000000 1.000000 1.000000 234213.000000 85.000000 6.000000 
84359.699951 445541.000000 6.972000 0.122293 0.056003 0.990913 57134.000000 2.000000 29.000000 0.000000 1.000000 1.000000 234213.000000 116.000000 6.000000 
84359.699951 445541.000000 6.980000 0.122293 0.056003 0.990913 57134.000000 2.000000 29.000000 0.000000 1.000000 1.000000 234213.000000 113.000000 6.000000 
84359.699951 445542.000000 7.036000 0.166766 0.026452 0.985642 57134.000000 2.000000 29.000000 0.000000 1.000000 1.000000 234213.000000 106.000000 6.000000 
84359.699951 445542.000000 7.019000 0.164165 0.024108 0.986138 57134.000000 2.000000 29.000000 0.000000 3.000000 1.000000 234213.000000 36.000000 6.000000 
84359.699951 445542.000000 6.580000 0.184237 0.036378 0.982208 57134.000000 2.000000 29.000000 0.000000 3.000000 2.000000 234213.000000 9.000000 6.000000 
84359.800049 445541.000000 5.821000 0.189722 0.086905 0.977984 57134.000000 2.000000 29.000000 0.000000 3.000000 3.000000 234213.000000 7.000000 6.000000 
84359.800049 445541.000000 5.037000 0.229689 0.116769 0.966234 57134.000000 2.000000 29.000000 0.000000 1.000000 1.000000 234213.000000 119.000000 6.000000 
84359.800049 445542.000000 5.037000 0.325686 0.105881 0.939531 57134.000000 2.000000 29.000000 0.000000 3.000000 1.000000 234213.000000 14.000000 6.000000 
84359.900024 445542.000000 4.365000 0.434305 0.169946 0.884589 57134.000000 2.000000 29.000000 0.000000 3.000000 2.000000 234213.000000 23.000000 6.000000 
84360.099976 445540.000000 2.291000 0.590466 0.267530 0.761432 57134.000000 2.000000 29.000000 0.000000 3.000000 3.000000 234213.000000 15.000000 6.000000 
84360.099976 445541.000000 2.216000 0.682199 0.301587 0.666071 57134.000000 2.000000 29.000000 0.000000 1.000000 1.000000 234213.000000 131.000000 6.000000 
84360.300049 445540.000000 -0.623000 0.902483 0.275309 0.331254 57134.000000 2.000000 29.000000 0.000000 2.000000 1.000000 234213.000000 20.000000 6.000000 
84360.300049 445540.000000 -0.626000 0.902483 0.275309 0.331254 57134.000000 2.000000 29.000000 0.000000 2.000000 1.000000 234213.000000 40.000000 6.000000 
84361.099976 445522.000000 4.258000 -0.033754 -0.015343 0.999312 57134.000000 2.000000 31.000000 1.000000 1.000000 1.000000 234213.000000 73.000000 6.000000 
84361.099976 445523.000000 4.286000 -0.025218 -0.007061 0.999657 57134.000000 2.000000 31.000000 0.000000 1.000000 1.000000 234213.000000 80.000000 6.000000 
84361.000000 445523.000000 4.311000 -0.027289 -0.009096 0.999586 57134.000000 2.000000 30.000000 0.000000 1.000000 1.000000 234213.000000 103.000000 6.000000 
84361.000000 445523.000000 4.239000 -0.027289 -0.009096 0.999586 57134.000000 2.000000 30.000000 0.000000 1.000000 1.000000 234213.000000 91.000000 6.000000 
84361.000000 445524.000000 4.250000 -0.012883 -0.002973 0.999913 57134.000000 2.000000 30.000000 0.000000 1.000000 1.000000 234213.000000 117.000000 6.000000 
84361.000000 445524.000000 4.240000 -0.012883 -0.002973 0.999913 57134.000000 2.000000 30.000000 0.000000 1.000000 1.000000 234213.000000 75.000000 6.000000 
84361.000000 445525.000000 4.259000 0.002938 -0.000979 0.999995 57134.000000 2.000000 30.000000 0.000000 1.000000 1.000000 234213.000000 78.000000 6.000000 
84360.900024 445525.000000 4.253000 0.000979 -0.000979 0.999999 57134.000000 2.000000 30.000000 0.000000 1.000000 1.000000 234213.000000 82.000000 6.000000 
84360.900024 445526.000000 4.252000 0.019281 -0.021311 0.999587 57134.000000 2.000000 30.000000 0.000000 1.000000 1.000000 234213.000000 105.000000 6.000000 
84360.900024 445526.000000 4.252000 0.019281 -0.021311 0.999587 57134.000000 2.000000 30.000000 0.000000 1.000000 1.000000 234213.000000 83.000000 6.000000 
84360.900024 445526.000000 4.249000 0.019281 -0.021311 0.999587 57134.000000 2.000000 30.000000 0.000000 1.000000 1.000000 234213.000000 81.000000 6.000000 
84360.900024 445527.000000 4.241000 0.035282 -0.060942 0.997518 57134.000000 2.000000 30.000000 0.000000 1.000000 1.000000 234213.000000 97.000000 6.000000 
84360.900024 445527.000000 4.240000 0.035282 -0.060942 0.997518 57134.000000 2.000000 30.000000 0.000000 1.000000 1.000000 234213.000000 120.000000 6.000000 
84360.800049 445528.000000 4.236000 0.063247 -0.125343 0.990095 57134.000000 2.000000 30.000000 0.000000 1.000000 1.000000 234213.000000 99.000000 6.000000 
84360.800049 445528.000000 4.245000 0.065705 -0.123341 0.990187 57134.000000 2.000000 30.000000 0.000000 1.000000 1.000000 234213.000000 92.000000 6.000000 
84360.800049 445529.000000 4.244000 0.096785 -0.180094 0.978876 57134.000000 2.000000 30.000000 0.000000 1.000000 1.000000 234213.000000 87.000000 6.000000 
84360.800049 445529.000000 4.245000 0.096785 -0.180094 0.978876 57134.000000 2.000000 30.000000 0.000000 1.000000 1.000000 234213.000000 87.000000 6.000000 
84360.800049 445530.000000 4.227000 0.126924 -0.216669 0.967959 57134.000000 2.000000 30.000000 0.000000 1.000000 1.000000 234213.000000 84.000000 6.000000 
84360.699951 445530.000000 4.235000 0.124023 -0.218639 0.967892 57134.000000 2.000000 30.000000 0.000000 1.000000 1.000000 234213.000000 102.000000 6.000000 
84360.699951 445530.000000 4.240000 0.124023 -0.218639 0.967892 57134.000000 2.000000 30.000000 0.000000 1.000000 1.000000 234213.000000 85.000000 6.000000 
84360.699951 445531.000000 4.262000 0.154259 -0.208703 0.965737 57134.000000 2.000000 30.000000 0.000000 1.000000 1.000000 234213.000000 121.000000 6.000000 
84360.699951 445531.000000 4.248000 0.154646 -0.209227 0.965561 57134.000000 2.000000 30.000000 0.000000 1.000000 1.000000 234213.000000 119.000000 6.000000 
84360.599976 445532.000000 4.559000 0.176279 -0.173706 0.968892 57134.000000 2.000000 30.000000 0.000000 1.000000 1.000000 234213.000000 79.000000 6.000000 
84360.400024 445534.000000 7.109000 0.168692 -0.158545 0.972834 57134.000000 2.000000 30.000000 0.000000 2.000000 1.000000 234213.000000 88.000000 6.000000 
84360.400024 445534.000000 6.642000 0.166570 -0.161484 0.972717 57134.000000 2.000000 30.000000 0.000000 2.000000 2.000000 234213.000000 16.000000 6.000000 
84360.300049 445534.000000 6.966000 0.160821 -0.160821 0.973793 57134.000000 2.000000 30.000000 0.000000 1.000000 1.000000 234213.000000 112.000000 6.000000 
84360.300049 445535.000000 6.971000 0.183069 -0.137617 0.973421 57134.000000 2.000000 29.000000 0.000000 1.000000 1.000000 234213.000000 149.000000 6.000000 
84360.300049 445535.000000 6.962000 0.183069 -0.137617 0.973421 57134.000000 2.000000 29.000000 0.000000 1.000000 1.000000 234213.000000 126.000000 6.000000 
84360.300049 445535.000000 6.952000 0.183069 -0.137617 0.973421 57134.000000 2.000000 29.000000 0.000000 1.000000 1.000000 234213.000000 120.000000 6.000000 
84360.300049 445536.000000 6.951000 0.190233 -0.105685 0.976034 57134.000000 2.000000 29.000000 0.000000 1.000000 1.000000 234213.000000 135.000000 6.000000 
84360.199951 445536.000000 7.102000 0.184090 -0.105018 0.977283 57134.000000 2.000000 29.000000 0.000000 1.000000 1.000000 234213.000000 199.000000 6.000000 
84360.199951 445537.000000 6.793000 0.186703 -0.051135 0.981085 57134.000000 2.000000 29.000000 0.000000 1.000000 1.000000 234213.000000 105.000000 6.000000 
84360.300049 445537.000000 6.432000 0.194960 -0.049039 0.979584 57134.000000 2.000000 29.000000 0.000000 1.000000 1.000000 234213.000000 100.000000 6.000000 
84360.300049 445537.000000 6.104000 0.210719 -0.044552 0.976531 57134.000000 2.000000 29.000000 0.000000 1.000000 1.000000 234213.000000 91.000000 6.000000 
84360.300049 445537.000000 5.731000 0.234610 -0.040115 0.971262 57134.000000 2.000000 29.000000 0.000000 1.000000 1.000000 234213.000000 103.000000 6.000000 
84360.300049 445538.000000 5.413000 0.246414 0.066294 0.966895 57134.000000 2.000000 29.000000 0.000000 1.000000 1.000000 234213.000000 95.000000 6.000000 
84360.300049 445538.000000 5.054000 0.278630 0.067431 0.958028 57134.000000 2.000000 29.000000 0.000000 1.000000 1.000000 234213.000000 102.000000 6.000000 
84360.300049 445538.000000 4.657000 0.299689 0.076544 0.950961 57134.000000 2.000000 29.000000 0.000000 1.000000 1.000000 234213.000000 102.000000 6.000000 
84360.300049 445538.000000 4.592000 0.312151 0.077058 0.946902 57134.000000 2.000000 29.000000 0.000000 1.000000 1.000000 234213.000000 75.000000 6.000000 
84360.099976 445540.000000 7.110000 0.115598 0.092245 0.989004 57134.000000 2.000000 29.000000 0.000000 1.000000 1.000000 234213.000000 205.000000 6.000000 
84360.099976 445541.000000 7.004000 0.152283 0.072010 0.985710 57134.000000 2.000000 29.000000 0.000000 1.000000 1.000000 234213.000000 103.000000 6.000000 
84360.000000 445541.000000 6.932000 0.141109 0.066473 0.987760 57134.000000 2.000000 29.000000 0.000000 1.000000 1.000000 234213.000000 82.000000 6.000000 
84360.199951 445541.000000 5.575000 0.250364 0.115453 0.961243 57134.000000 2.000000 29.000000 0.000000 1.000000 1.000000 234213.000000 26.000000 6.000000 
84360.199951 445541.000000 5.034000 0.288786 0.141035 0.946949 57134.000000 2.000000 29.000000 0.000000 2.000000 1.000000 234213.000000 37.000000 6.000000 
84360.300049 445541.000000 4.421000 0.361616 0.187240 0.913332 57134.000000 2.000000 29.000000 0.000000 2.000000 2.000000 234213.000000 25.000000 6.000000 
84360.500000 445540.000000 2.210000 0.720074 0.290275 0.630265 57134.000000 2.000000 29.000000 0.000000 1.000000 1.000000 234213.000000 106.000000 6.000000 
84360.400024 445540.000000 2.228000 0.677430 0.286667 0.677430 57134.000000 2.000000 29.000000 0.000000 3.000000 1.000000 234213.000000 29.000000 6.000000 
84360.500000 445540.000000 1.453000 0.856397 0.307068 0.415082 57134.000000 2.000000 29.000000 0.000000 3.000000 2.000000 234213.000000 22.000000 6.000000 
84360.699951 445539.000000 -0.319000 0.861339 0.322039 0.392919 57134.000000 2.000000 29.000000 0.000000 3.000000 3.000000 234213.000000 81.000000 6.000000 
84360.699951 445539.000000 -0.801000 0.883582 0.315673 0.345881 57134.000000 2.000000 29.000000 0.000000 1.000000 1.000000 234213.000000 154.000000 6.000000 
84361.500000 445522.000000 4.248000 -0.019091 -0.011053 0.999757 57134.000000 2.000000 31.000000 1.000000 1.000000 1.000000 234213.000000 101.000000 6.000000 
84361.500000 445522.000000 4.063000 -0.015012 -0.011009 0.999827 57134.000000 2.000000 31.000000 0.000000 1.000000 1.000000 234213.000000 112.000000 6.000000 
84361.400024 445523.000000 4.307000 -0.014924 -0.002985 0.999884 57134.000000 2.000000 31.000000 0.000000 1.000000 1.000000 234213.000000 164.000000 6.000000 
84361.400024 445523.000000 4.262000 -0.014924 -0.002985 0.999884 57134.000000 2.000000 30.000000 0.000000 1.000000 1.000000 234213.000000 90.000000 6.000000 
84361.400024 445524.000000 4.255000 -0.010858 0.000987 0.999941 57134.000000 2.000000 30.000000 0.000000 1.000000 1.000000 234213.000000 86.000000 6.000000 
84361.400024 445524.000000 4.262000 -0.010858 0.000987 0.999941 57134.000000 2.000000 30.000000 0.000000 1.000000 1.000000 234213.000000 75.000000 6.000000 
84361.300049 445524.000000 4.254000 -0.012857 0.000989 0.999917 57134.000000 2.000000 30.000000 0.000000 1.000000 1.000000 234213.000000 81.000000 6.000000 
84361.300049 445525.000000 4.258000 0.006896 0.002956 0.999972 57134.000000 2.000000 30.000000 0.000000 1.000000 1.000000 234213.000000 75.000000 6.000000 
84361.300049 445525.000000 4.258000 0.006896 0.002956 0.999972 57134.000000 2.000000 30.000000 0.000000 1.000000 1.000000 234213.000000 71.000000 6.000000 
84361.300049 445526.000000 4.262000 0.021227 -0.013140 0.999688 57134.000000 2.000000 30.000000 0.000000 1.000000 1.000000 234213.000000 75.000000 6.000000 
84361.300049 445526.000000 4.267000 0.021227 -0.013140 0.999688 57134.000000 2.000000 30.000000 0.000000 1.000000 1.000000 234213.000000 84.000000 6.000000 
84361.199951 445527.000000 4.249000 0.037044 -0.049745 0.998075 57134.000000 2.000000 30.000000 0.000000 1.000000 1.000000 234213.000000 107.000000 6.000000 
84361.199951 445527.000000 4.249000 0.037044 -0.049745 0.998075 57134.000000 2.000000 30.000000 0.000000 1.000000 1.000000 234213.000000 98.000000 6.000000 
84361.199951 445528.000000 4.230000 0.062760 -0.112969 0.991614 57134.000000 2.000000 30.000000 0.000000 1.000000 1.000000 234213.000000 93.000000 6.000000 
84361.199951 445528.000000 4.256000 0.062760 -0.112969 0.991614 57134.000000 2.000000 30.000000 0.000000 1.000000 1.000000 234213.000000 99.000000 6.000000 
84361.199951 445528.000000 4.227000 0.062760 -0.112969 0.991614 57134.000000 2.000000 30.000000 0.000000 1.000000 1.000000 234213.000000 117.000000 6.000000 
84361.099976 445529.000000 4.248000 0.098906 -0.169728 0.980515 57134.000000 2.000000 30.000000 0.000000 1.000000 1.000000 234213.000000 92.000000 6.000000 
84361.099976 445529.000000 4.240000 0.098906 -0.169728 0.980515 57134.000000 2.000000 30.000000 0.000000 1.000000 1.000000 234213.000000 105.000000 6.000000 
84361.099976 445530.000000 4.238000 0.134629 -0.211560 0.968048 57134.000000 2.000000 30.000000 0.000000 1.000000 1.000000 234213.000000 86.000000 6.000000 
84361.099976 445530.000000 4.242000 0.134629 -0.211560 0.968048 57134.000000 2.000000 30.000000 0.000000 1.000000 1.000000 234213.000000 121.000000 6.000000 
84361.099976 445531.000000 4.263000 0.171710 -0.205790 0.963414 57134.000000 2.000000 30.000000 0.000000 1.000000 1.000000 234213.000000 89.000000 6.000000 
84361.000000 445531.000000 4.254000 0.171278 -0.205272 0.963601 57134.000000 2.000000 30.000000 0.000000 1.000000 1.000000 234213.000000 111.000000 6.000000 
84361.000000 445532.000000 4.261000 0.196337 -0.167732 0.966084 57134.000000 2.000000 30.000000 0.000000 1.000000 1.000000 234213.000000 121.000000 6.000000 
84361.000000 445532.000000 4.596000 0.199336 -0.168068 0.965411 57134.000000 2.000000 30.000000 0.000000 1.000000 1.000000 234213.000000 76.000000 6.000000 
84360.699951 445534.000000 7.069000 0.185461 -0.152206 0.970792 57134.000000 2.000000 30.000000 0.000000 1.000000 1.000000 234213.000000 184.000000 6.000000 
84360.699951 445534.000000 6.971000 0.185388 -0.154703 0.970411 57134.000000 2.000000 30.000000 0.000000 1.000000 1.000000 234213.000000 124.000000 6.000000 
84360.699951 445535.000000 6.968000 0.201815 -0.128197 0.970998 57134.000000 2.000000 29.000000 0.000000 1.000000 1.000000 234213.000000 110.000000 6.000000 
84360.699951 445535.000000 6.958000 0.201815 -0.128197 0.970998 57134.000000 2.000000 29.000000 0.000000 1.000000 1.000000 234213.000000 130.000000 6.000000 
84360.599976 445536.000000 6.964000 0.203702 -0.103726 0.973523 57134.000000 2.000000 29.000000 0.000000 1.000000 1.000000 234213.000000 127.000000 6.000000 
84360.599976 445536.000000 6.950000 0.203702 -0.103726 0.973523 57134.000000 2.000000 29.000000 0.000000 1.000000 1.000000 234213.000000 134.000000 6.000000 
84360.599976 445537.000000 7.036000 0.198605 -0.054165 0.978582 57134.000000 2.000000 29.000000 0.000000 1.000000 1.000000 234213.000000 140.000000 6.000000 
84360.599976 445537.000000 6.687000 0.206986 -0.054470 0.976826 57134.000000 2.000000 29.000000 0.000000 1.000000 1.000000 234213.000000 84.000000 6.000000 
84360.599976 445537.000000 6.367000 0.214481 -0.049682 0.975464 57134.000000 2.000000 29.000000 0.000000 1.000000 1.000000 234213.000000 100.000000 6.000000 
84360.599976 445537.000000 6.036000 0.224784 -0.047387 0.973256 57134.000000 2.000000 29.000000 0.000000 1.000000 1.000000 234213.000000 88.000000 6.000000 
84360.699951 445538.000000 5.684000 0.267799 0.056577 0.961812 57134.000000 2.000000 29.000000 0.000000 1.000000 1.000000 234213.000000 120.000000 6.000000 
84360.699951 445538.000000 5.318000 0.316255 0.068978 0.946163 57134.000000 2.000000 29.000000 0.000000 1.000000 1.000000 234213.000000 106.000000 6.000000 
84360.699951 445538.000000 4.987000 0.320110 0.071861 0.944651 57134.000000 2.000000 29.000000 0.000000 1.000000 1.000000 234213.000000 99.000000 6.000000 
84360.699951 445538.000000 4.599000 0.363884 0.081907 0.927836 57134.000000 2.000000 29.000000 0.000000 1.000000 1.000000 234213.000000 106.000000 6.000000 
84360.599976 445539.000000 5.180000 0.272903 0.139780 0.951833 57134.000000 2.000000 29.000000 0.000000 2.000000 1.000000 234213.000000 11.000000 6.000000 
84360.699951 445539.000000 4.576000 0.338624 0.163041 0.926688 57134.000000 2.000000 29.000000 0.000000 2.000000 2.000000 234213.000000 45.000000 6.000000 
84360.599976 445540.000000 5.646000 0.251137 0.155466 0.955385 57134.000000 2.000000 29.000000 0.000000 2.000000 1.000000 234213.000000 23.000000 6.000000 
84360.599976 445539.000000 5.206000 0.272903 0.139780 0.951833 57134.000000 2.000000 29.000000 0.000000 2.000000 2.000000 234213.000000 1.000000 6.000000 
84360.599976 445540.000000 4.768000 0.310102 0.182168 0.933087 57134.000000 2.000000 29.000000 0.000000 2.000000 1.000000 234213.000000 16.000000 6.000000 
84360.699951 445539.000000 4.328000 0.357849 0.171145 0.917961 57134.000000 2.000000 29.000000 0.000000 2.000000 2.000000 234213.000000 19.000000 6.000000 
84360.800049 445539.000000 2.438000 0.672209 0.273035 0.688176 57134.000000 2.000000 29.000000 0.000000 1.000000 1.000000 234213.000000 66.000000 6.000000 
84360.900024 445539.000000 1.449000 0.876321 0.279999 0.391998 57134.000000 2.000000 29.000000 0.000000 1.000000 1.000000 234213.000000 173.000000 6.000000 
84360.900024 445539.000000 0.973000 0.912059 0.254562 0.321475 57134.000000 2.000000 29.000000 0.000000 1.000000 1.000000 234213.000000 113.000000 6.000000 
84361.000000 445539.000000 0.263000 0.876334 0.323499 0.356913 57134.000000 2.000000 29.000000 0.000000 1.000000 1.000000 234213.000000 139.000000 6.000000 
84361.800049 445521.000000 4.249000 -0.023388 -0.017287 0.999577 57134.000000 2.000000 31.000000 1.000000 1.000000 1.000000 234213.000000 67.000000 6.000000 
84361.800049 445521.000000 4.236000 -0.023388 -0.017287 0.999577 57134.000000 2.000000 31.000000 0.000000 1.000000 1.000000 234213.000000 84.000000 6.000000 
84361.800049 445522.000000 4.244000 -0.012960 -0.008972 0.999876 57134.000000 2.000000 31.000000 0.000000 1.000000 1.000000 234213.000000 98.000000 6.000000 
