ply
format ascii 1.0
comment Created by CloudCompare v2.12 alpha
comment Created 5/4/2021 10:17 AM
obj_info Generated by CloudCompare!
element vertex 579
property double x
property double y
property double z
property float scalar_ScanAngleRank
property float scalar_EdgeOfFlightLine
property float scalar_NumberOfReturns
property float scalar_ReturnNumber
property float scalar_Classification
end_header
85607.864014 446848.707031 5.535000 3.000000 0.000000 1.000000 1.000000 6.000000 
85607.231995 446842.249023 5.527000 2.000000 0.000000 1.000000 1.000000 6.000000 
85608.026001 446850.364014 5.546000 3.000000 0.000000 1.000000 1.000000 6.000000 
85607.330017 446843.264038 5.551000 2.000000 0.000000 1.000000 1.000000 6.000000 
85607.135010 446841.250977 5.546000 2.000000 0.000000 1.000000 1.000000 6.000000 
85607.168030 446841.594971 5.541000 2.000000 0.000000 1.000000 1.000000 6.000000 
85607.594971 446845.984009 5.538000 3.000000 0.000000 1.000000 1.000000 6.000000 
85607.000977 446839.885986 5.544000 2.000000 0.000000 1.000000 1.000000 6.000000 
85606.966003 446839.552979 5.543000 2.000000 0.000000 1.000000 1.000000 6.000000 
85607.364990 446843.608032 5.554000 2.000000 0.000000 1.000000 1.000000 6.000000 
85607.033997 446840.208984 5.541000 2.000000 0.000000 1.000000 1.000000 6.000000 
85607.432983 446844.291016 5.551000 2.000000 0.000000 1.000000 1.000000 6.000000 
85606.838013 446838.196045 5.529000 2.000000 0.000000 1.000000 1.000000 6.000000 
85606.770996 446837.515991 5.533000 2.000000 0.000000 1.000000 1.000000 6.000000 
85606.869019 446838.529053 5.540000 2.000000 0.000000 1.000000 1.000000 6.000000 
85607.297974 446842.927979 5.537000 2.000000 0.000000 1.000000 1.000000 6.000000 
85608.221985 446852.404053 5.560000 3.000000 0.000000 1.000000 1.000000 6.000000 
85607.099976 446840.890991 5.567000 2.000000 0.000000 1.000000 1.000000 6.000000 
85606.937012 446839.234009 5.538000 2.000000 0.000000 1.000000 1.000000 6.000000 
85606.695984 446836.487061 6.610000 1.000000 0.000000 1.000000 1.000000 6.000000 
85607.262024 446842.584961 5.544000 2.000000 0.000000 1.000000 1.000000 6.000000 
85608.651001 446856.811035 5.551000 4.000000 0.000000 1.000000 1.000000 6.000000 
85606.739990 446837.197021 5.527000 2.000000 0.000000 1.000000 1.000000 6.000000 
85607.067993 446840.569946 5.627000 2.000000 0.000000 1.000000 1.000000 6.000000 
85607.197021 446841.927979 5.532000 2.000000 0.000000 1.000000 1.000000 6.000000 
85606.622986 446835.822021 6.224000 1.000000 0.000000 1.000000 1.000000 6.000000 
85607.492981 446844.942993 5.538000 3.000000 0.000000 1.000000 1.000000 6.000000 
85606.581970 446835.463989 6.038000 1.000000 0.000000 1.000000 1.000000 6.000000 
85606.655029 446836.131958 6.420000 1.000000 0.000000 1.000000 1.000000 6.000000 
85606.370972 446833.467041 5.532000 1.000000 0.000000 1.000000 1.000000 6.000000 
85606.341980 446833.120972 5.549000 1.000000 0.000000 1.000000 1.000000 6.000000 
85606.705994 446836.859009 5.541000 1.000000 0.000000 1.000000 1.000000 6.000000 
85606.176025 446831.421997 5.575000 1.000000 0.000000 2.000000 2.000000 6.000000 
85606.504028 446834.822998 5.515000 1.000000 0.000000 1.000000 1.000000 6.000000 
85606.208008 446831.786987 5.538000 1.000000 0.000000 1.000000 1.000000 6.000000 
85606.901001 446838.871948 5.547000 2.000000 0.000000 1.000000 1.000000 6.000000 
85606.276978 446832.464966 5.549000 1.000000 0.000000 1.000000 1.000000 6.000000 
85606.804016 446837.854004 5.541000 2.000000 0.000000 1.000000 1.000000 6.000000 
85606.054016 446830.086060 5.997000 1.000000 0.000000 1.000000 1.000000 6.000000 
85605.979004 446829.416992 5.527000 1.000000 0.000000 1.000000 1.000000 6.000000 
85606.306030 446832.787964 5.526000 1.000000 0.000000 1.000000 1.000000 6.000000 
85605.942017 446829.067017 5.526000 0.000000 0.000000 1.000000 1.000000 6.000000 
85606.168030 446831.093018 6.556000 1.000000 0.000000 1.000000 1.000000 6.000000 
85606.242004 446832.128052 5.548000 1.000000 0.000000 1.000000 1.000000 6.000000 
85606.546997 446835.147949 5.860000 1.000000 0.000000 1.000000 1.000000 6.000000 
85606.015991 446829.770996 5.648000 1.000000 0.000000 1.000000 1.000000 6.000000 
85606.090027 446830.421997 6.196000 1.000000 0.000000 1.000000 1.000000 6.000000 
85605.781006 446827.400024 5.561000 0.000000 0.000000 1.000000 1.000000 6.000000 
85605.877014 446828.390991 5.545000 0.000000 0.000000 1.000000 1.000000 6.000000 
85605.843994 446828.055054 5.551000 0.000000 0.000000 1.000000 1.000000 6.000000 
85605.815002 446827.739990 5.550000 0.000000 0.000000 1.000000 1.000000 6.000000 
85605.601990 446825.363037 6.351000 0.000000 0.000000 1.000000 1.000000 6.000000 
85606.473022 446834.505981 5.520000 1.000000 0.000000 1.000000 1.000000 6.000000 
85605.568970 446825.043945 6.175000 0.000000 0.000000 1.000000 1.000000 6.000000 
85605.638000 446825.697998 6.537000 0.000000 0.000000 1.000000 1.000000 6.000000 
85605.526001 446824.685059 5.979000 0.000000 0.000000 1.000000 1.000000 6.000000 
85605.914001 446828.739014 5.545000 0.000000 0.000000 1.000000 1.000000 6.000000 
85606.125977 446830.737061 6.369000 1.000000 0.000000 1.000000 1.000000 6.000000 
85605.414978 446823.660034 5.529000 0.000000 0.000000 1.000000 1.000000 6.000000 
85606.202026 446831.409058 6.652000 1.000000 0.000000 2.000000 1.000000 6.000000 
85605.679016 446826.378052 5.549000 0.000000 0.000000 1.000000 1.000000 6.000000 
85605.252991 446821.969971 5.535000 0.000000 0.000000 1.000000 1.000000 6.000000 
85605.713989 446826.696045 5.554000 0.000000 0.000000 1.000000 1.000000 6.000000 
85605.354980 446823.012939 5.531000 0.000000 0.000000 1.000000 1.000000 6.000000 
85605.317993 446822.677002 5.531000 0.000000 0.000000 1.000000 1.000000 6.000000 
85606.405029 446833.797974 5.545000 1.000000 0.000000 1.000000 1.000000 6.000000 
85605.216980 446821.651978 5.536000 0.000000 0.000000 1.000000 1.000000 6.000000 
85605.018005 446819.614014 5.540000 -1.000000 0.000000 1.000000 1.000000 6.000000 
85605.747986 446827.057007 5.554000 0.000000 0.000000 1.000000 1.000000 6.000000 
85605.450989 446824.005981 5.526000 0.000000 0.000000 1.000000 1.000000 6.000000 
85606.442017 446834.140991 5.525000 1.000000 0.000000 1.000000 1.000000 6.000000 
85605.671997 446826.015015 6.681000 0.000000 0.000000 1.000000 1.000000 6.000000 
85605.153992 446820.968994 5.547000 -1.000000 0.000000 1.000000 1.000000 6.000000 
85604.958984 446818.935059 5.673000 -1.000000 0.000000 1.000000 1.000000 6.000000 
85604.856018 446817.946045 5.544000 -1.000000 0.000000 1.000000 1.000000 6.000000 
85604.825989 446817.603027 5.548000 -1.000000 0.000000 1.000000 1.000000 6.000000 
85605.052979 446819.958008 5.540000 -1.000000 0.000000 1.000000 1.000000 6.000000 
85605.284973 446822.328003 5.528000 0.000000 0.000000 1.000000 1.000000 6.000000 
85605.086975 446820.319946 5.530000 -1.000000 0.000000 1.000000 1.000000 6.000000 
85604.757019 446816.921997 5.545000 -1.000000 0.000000 1.000000 1.000000 6.000000 
85605.122986 446820.640015 5.543000 -1.000000 0.000000 1.000000 1.000000 6.000000 
85605.185974 446821.291016 5.535000 -1.000000 0.000000 1.000000 1.000000 6.000000 
85604.986023 446819.280029 5.529000 -1.000000 0.000000 1.000000 1.000000 6.000000 
85605.479980 446824.343018 5.540000 0.000000 0.000000 1.000000 1.000000 6.000000 
85604.734985 446816.567993 6.008000 -1.000000 0.000000 1.000000 1.000000 6.000000 
85604.703003 446816.253052 6.023000 -1.000000 0.000000 2.000000 1.000000 6.000000 
85605.382019 446823.328003 5.528000 0.000000 0.000000 1.000000 1.000000 6.000000 
85604.924011 446818.600952 5.569000 -1.000000 0.000000 1.000000 1.000000 6.000000 
85604.893005 446818.282959 5.535000 -1.000000 0.000000 1.000000 1.000000 6.000000 
85604.789978 446817.241943 5.544000 -1.000000 0.000000 1.000000 1.000000 6.000000 
85609.952026 446874.858032 0.434000 6.000000 0.000000 3.000000 3.000000 6.000000 
85609.963013 446873.522949 6.010000 6.000000 0.000000 2.000000 1.000000 6.000000 
85609.918030 446874.504028 0.455000 6.000000 0.000000 2.000000 2.000000 6.000000 
85610.030029 446874.232056 6.008000 6.000000 0.000000 3.000000 1.000000 6.000000 
85609.960999 446874.781006 1.117000 6.000000 0.000000 3.000000 2.000000 6.000000 
85609.892029 446872.842041 6.003000 6.000000 0.000000 2.000000 1.000000 6.000000 
85609.927979 446873.206055 5.992000 6.000000 0.000000 2.000000 1.000000 6.000000 
85609.796997 446871.853027 5.995000 6.000000 0.000000 2.000000 1.000000 6.000000 
85609.997986 446873.884033 6.010000 6.000000 0.000000 2.000000 1.000000 6.000000 
85609.864014 446872.515991 5.992000 6.000000 0.000000 2.000000 1.000000 6.000000 
85609.526978 446869.112061 5.990000 6.000000 0.000000 1.000000 1.000000 6.000000 
85609.882019 446874.162964 0.202000 6.000000 0.000000 2.000000 2.000000 6.000000 
85609.828003 446872.171997 5.993000 6.000000 0.000000 2.000000 1.000000 6.000000 
85609.598999 446869.802002 6.000000 6.000000 0.000000 1.000000 1.000000 6.000000 
85609.693970 446870.810059 5.991000 6.000000 0.000000 1.000000 1.000000 6.000000 
85609.254028 446866.412964 5.609000 5.000000 0.000000 1.000000 1.000000 6.000000 
85609.221008 446866.081055 5.575000 5.000000 0.000000 1.000000 1.000000 6.000000 
85609.463989 446868.430054 5.985000 6.000000 0.000000 1.000000 1.000000 6.000000 
85609.726990 446871.145020 6.006000 6.000000 0.000000 1.000000 1.000000 6.000000 
85609.122986 446865.077026 5.567000 5.000000 0.000000 1.000000 1.000000 6.000000 
85609.565979 446869.462036 5.993000 6.000000 0.000000 1.000000 1.000000 6.000000 
85609.059021 446864.387939 5.563000 5.000000 0.000000 1.000000 1.000000 6.000000 
85609.763977 446871.490967 5.992000 6.000000 0.000000 1.000000 1.000000 6.000000 
85609.627991 446870.119995 5.999000 6.000000 0.000000 1.000000 1.000000 6.000000 
85609.661011 446870.461060 5.993000 6.000000 0.000000 1.000000 1.000000 6.000000 
85609.291016 446866.749023 5.678000 5.000000 0.000000 1.000000 1.000000 6.000000 
85608.924011 446863.024048 5.560000 5.000000 0.000000 1.000000 1.000000 6.000000 
85608.992981 446863.704956 5.574000 5.000000 0.000000 1.000000 1.000000 6.000000 
85609.398010 446867.751953 5.958000 5.000000 0.000000 1.000000 1.000000 6.000000 
85609.361023 446867.420044 5.866000 5.000000 0.000000 1.000000 1.000000 6.000000 
85609.330994 446867.104980 5.820000 5.000000 0.000000 1.000000 1.000000 6.000000 
85609.088989 446864.739990 5.561000 5.000000 0.000000 1.000000 1.000000 6.000000 
85608.859985 446862.359985 5.606000 5.000000 0.000000 1.000000 1.000000 6.000000 
85608.659973 446860.317993 5.558000 4.000000 0.000000 1.000000 1.000000 6.000000 
85608.825989 446861.995972 5.556000 5.000000 0.000000 1.000000 1.000000 6.000000 
85608.955017 446863.342041 5.555000 5.000000 0.000000 1.000000 1.000000 6.000000 
85609.426025 446868.072021 5.977000 5.000000 0.000000 1.000000 1.000000 6.000000 
85608.627991 446859.969971 5.680000 4.000000 0.000000 1.000000 1.000000 6.000000 
85608.572021 446859.192017 6.529000 4.000000 0.000000 2.000000 1.000000 6.000000 
85608.726013 446860.973999 5.550000 5.000000 0.000000 1.000000 1.000000 6.000000 
85608.689026 446860.636963 5.558000 5.000000 0.000000 1.000000 1.000000 6.000000 
85609.023987 446864.027954 5.557000 5.000000 0.000000 1.000000 1.000000 6.000000 
85608.492004 446858.588013 5.548000 4.000000 0.000000 1.000000 1.000000 6.000000 
85609.156982 446865.396973 5.568000 5.000000 0.000000 1.000000 1.000000 6.000000 
85608.362000 446857.250000 5.566000 4.000000 0.000000 1.000000 1.000000 6.000000 
85608.525024 446858.942017 5.622000 4.000000 0.000000 1.000000 1.000000 6.000000 
85608.591980 446859.631958 5.565000 4.000000 0.000000 2.000000 2.000000 6.000000 
85609.494995 446868.749023 5.993000 6.000000 0.000000 1.000000 1.000000 6.000000 
85608.291016 446856.562988 5.555000 4.000000 0.000000 1.000000 1.000000 6.000000 
85608.890991 446862.688965 5.555000 5.000000 0.000000 1.000000 1.000000 6.000000 
85608.611023 446859.553955 6.544000 4.000000 0.000000 2.000000 1.000000 6.000000 
85608.557007 446859.264038 5.579000 4.000000 0.000000 2.000000 2.000000 6.000000 
85608.328003 446856.901001 5.557000 4.000000 0.000000 1.000000 1.000000 6.000000 
85608.429016 446857.935059 5.542000 4.000000 0.000000 1.000000 1.000000 6.000000 
85608.226990 446855.879028 5.563000 4.000000 0.000000 1.000000 1.000000 6.000000 
85608.398010 446857.614014 5.575000 4.000000 0.000000 1.000000 1.000000 6.000000 
85607.965027 446853.185059 5.545000 4.000000 0.000000 1.000000 1.000000 6.000000 
85607.934021 446852.865967 5.551000 4.000000 0.000000 1.000000 1.000000 6.000000 
85607.995972 446853.512939 5.554000 4.000000 0.000000 1.000000 1.000000 6.000000 
85608.456970 446858.267944 5.554000 4.000000 0.000000 1.000000 1.000000 6.000000 
85608.793030 446861.652954 5.560000 5.000000 0.000000 1.000000 1.000000 6.000000 
85608.258972 446856.215942 5.555000 4.000000 0.000000 1.000000 1.000000 6.000000 
85608.028015 446853.837036 5.538000 4.000000 0.000000 1.000000 1.000000 6.000000 
85609.187012 446865.733032 5.572000 5.000000 0.000000 1.000000 1.000000 6.000000 
85608.093018 446854.520996 5.556000 4.000000 0.000000 1.000000 1.000000 6.000000 
85608.062988 446854.194946 5.547000 4.000000 0.000000 1.000000 1.000000 6.000000 
85608.757019 446861.313965 5.546000 5.000000 0.000000 1.000000 1.000000 6.000000 
85608.161987 446855.227051 5.570000 4.000000 0.000000 1.000000 1.000000 6.000000 
85607.762024 446851.134033 5.547000 3.000000 0.000000 1.000000 1.000000 6.000000 
85607.598999 446849.458008 5.563000 3.000000 0.000000 1.000000 1.000000 6.000000 
85607.666992 446850.135986 5.614000 3.000000 0.000000 1.000000 1.000000 6.000000 
85607.549988 446848.718018 6.484000 3.000000 0.000000 2.000000 1.000000 6.000000 
85607.862976 446852.155029 5.552000 3.000000 0.000000 1.000000 1.000000 6.000000 
85607.517029 446848.386963 6.483000 3.000000 0.000000 2.000000 1.000000 6.000000 
85607.898010 446852.505981 5.556000 3.000000 0.000000 1.000000 1.000000 6.000000 
85607.632019 446849.776001 5.553000 3.000000 0.000000 1.000000 1.000000 6.000000 
85607.796997 446851.472046 5.562000 3.000000 0.000000 1.000000 1.000000 6.000000 
85607.580994 446849.041992 6.495000 3.000000 0.000000 2.000000 1.000000 6.000000 
85607.369995 446847.083984 5.551000 3.000000 0.000000 1.000000 1.000000 6.000000 
85608.193970 446855.564941 5.558000 4.000000 0.000000 1.000000 1.000000 6.000000 
85607.827026 446851.822021 5.554000 3.000000 0.000000 1.000000 1.000000 6.000000 
85607.500977 446848.437012 5.561000 3.000000 0.000000 2.000000 2.000000 6.000000 
85607.234009 446845.743042 5.550000 3.000000 0.000000 1.000000 1.000000 6.000000 
85607.734009 446850.817993 5.552000 3.000000 0.000000 1.000000 1.000000 6.000000 
85607.533020 446848.766968 5.621000 3.000000 0.000000 2.000000 2.000000 6.000000 
85607.138977 446844.725952 5.538000 2.000000 0.000000 1.000000 1.000000 6.000000 
85607.164978 446845.042969 5.545000 3.000000 0.000000 1.000000 1.000000 6.000000 
85607.400024 446847.415039 5.550000 3.000000 0.000000 1.000000 1.000000 6.000000 
85607.034973 446843.703003 5.556000 2.000000 0.000000 1.000000 1.000000 6.000000 
85607.331970 446846.734985 5.542000 3.000000 0.000000 1.000000 1.000000 6.000000 
85607.697021 446850.484009 5.554000 3.000000 0.000000 1.000000 1.000000 6.000000 
85607.099976 446844.359985 5.539000 2.000000 0.000000 1.000000 1.000000 6.000000 
85606.968018 446843.026001 5.547000 2.000000 0.000000 1.000000 1.000000 6.000000 
85607.435974 446847.760010 5.574000 3.000000 0.000000 1.000000 1.000000 6.000000 
85606.869019 446841.999023 5.537000 2.000000 0.000000 1.000000 1.000000 6.000000 
85606.934998 446842.675049 5.554000 2.000000 0.000000 1.000000 1.000000 6.000000 
85608.130005 446854.883057 5.569000 4.000000 0.000000 1.000000 1.000000 6.000000 
85607.302002 446846.395996 5.540000 3.000000 0.000000 1.000000 1.000000 6.000000 
85607.005981 446843.380005 5.539000 2.000000 0.000000 1.000000 1.000000 6.000000 
85607.565979 446849.088013 5.683000 3.000000 0.000000 2.000000 2.000000 6.000000 
85606.705994 446840.296021 5.581000 2.000000 0.000000 1.000000 1.000000 6.000000 
85606.739014 446840.661987 5.544000 2.000000 0.000000 1.000000 1.000000 6.000000 
85606.638977 446839.625000 5.548000 2.000000 0.000000 1.000000 1.000000 6.000000 
85607.267029 446846.079956 5.534000 3.000000 0.000000 1.000000 1.000000 6.000000 
85606.901978 446842.348999 5.551000 2.000000 0.000000 1.000000 1.000000 6.000000 
85606.471985 446837.942993 5.536000 2.000000 0.000000 1.000000 1.000000 6.000000 
85606.406006 446837.269043 5.538000 2.000000 0.000000 1.000000 1.000000 6.000000 
85606.374023 446836.936035 5.557000 1.000000 0.000000 1.000000 1.000000 6.000000 
85607.070984 446844.040039 5.551000 2.000000 0.000000 1.000000 1.000000 6.000000 
85607.203003 446845.397949 5.550000 3.000000 0.000000 1.000000 1.000000 6.000000 
85606.541016 446838.645020 5.547000 2.000000 0.000000 1.000000 1.000000 6.000000 
85606.676025 446839.988037 5.553000 2.000000 0.000000 1.000000 1.000000 6.000000 
85606.241028 446835.567017 5.537000 1.000000 0.000000 1.000000 1.000000 6.000000 
85606.508972 446838.287964 5.535000 2.000000 0.000000 1.000000 1.000000 6.000000 
85606.575012 446838.969971 5.545000 2.000000 0.000000 1.000000 1.000000 6.000000 
85606.145996 446834.578003 5.522000 1.000000 0.000000 1.000000 1.000000 6.000000 
85606.606018 446839.306030 5.540000 2.000000 0.000000 1.000000 1.000000 6.000000 
85606.807983 446841.343994 5.554000 2.000000 0.000000 1.000000 1.000000 6.000000 
85606.835022 446841.670044 5.546000 2.000000 0.000000 1.000000 1.000000 6.000000 
85606.112976 446834.241943 5.531000 1.000000 0.000000 1.000000 1.000000 6.000000 
85605.945984 446832.531982 5.542000 1.000000 0.000000 1.000000 1.000000 6.000000 
85605.914001 446832.203003 5.546000 1.000000 0.000000 1.000000 1.000000 6.000000 
85606.440002 446837.610962 5.547000 2.000000 0.000000 1.000000 1.000000 6.000000 
85606.343018 446836.616943 5.537000 1.000000 0.000000 1.000000 1.000000 6.000000 
85606.771973 446841.005005 5.545000 2.000000 0.000000 1.000000 1.000000 6.000000 
85605.978027 446832.881958 5.547000 1.000000 0.000000 1.000000 1.000000 6.000000 
85605.882996 446831.884033 5.543000 1.000000 0.000000 1.000000 1.000000 6.000000 
85605.874023 446831.535034 6.702000 1.000000 0.000000 2.000000 1.000000 6.000000 
85606.013000 446833.213989 5.549000 1.000000 0.000000 1.000000 1.000000 6.000000 
85606.044006 446833.557983 5.528000 1.000000 0.000000 1.000000 1.000000 6.000000 
85605.648987 446829.514038 5.533000 1.000000 0.000000 1.000000 1.000000 6.000000 
85607.466980 446848.119019 5.559000 3.000000 0.000000 1.000000 1.000000 6.000000 
85606.278992 446835.932007 5.522000 1.000000 0.000000 1.000000 1.000000 6.000000 
85605.765015 446830.512939 6.207000 1.000000 0.000000 1.000000 1.000000 6.000000 
85606.174988 446834.886963 5.537000 1.000000 0.000000 1.000000 1.000000 6.000000 
85605.721985 446830.156982 6.010000 1.000000 0.000000 1.000000 1.000000 6.000000 
85606.312988 446836.274048 5.540000 1.000000 0.000000 1.000000 1.000000 6.000000 
85606.081970 446833.925049 5.546000 1.000000 0.000000 1.000000 1.000000 6.000000 
85605.689026 446829.845947 5.735000 1.000000 0.000000 1.000000 1.000000 6.000000 
85605.388000 446826.824951 5.545000 0.000000 0.000000 1.000000 1.000000 6.000000 
85605.797974 446830.829956 6.404000 1.000000 0.000000 1.000000 1.000000 6.000000 
85605.518005 446828.151001 5.548000 0.000000 0.000000 1.000000 1.000000 6.000000 
85605.848022 446831.552979 5.563000 1.000000 0.000000 2.000000 2.000000 6.000000 
85605.551025 446828.493042 5.548000 0.000000 0.000000 1.000000 1.000000 6.000000 
85605.346985 446826.115967 6.668000 0.000000 0.000000 2.000000 1.000000 6.000000 
85605.482971 446827.803955 5.560000 0.000000 0.000000 1.000000 1.000000 6.000000 
85605.617981 446829.197021 5.535000 0.000000 0.000000 1.000000 1.000000 6.000000 
85605.447998 446827.474976 5.547000 0.000000 0.000000 1.000000 1.000000 6.000000 
85605.317993 446826.123047 5.603000 0.000000 0.000000 2.000000 2.000000 6.000000 
85605.085999 446823.765991 5.529000 0.000000 0.000000 1.000000 1.000000 6.000000 
85605.356018 446826.483032 5.550000 0.000000 0.000000 1.000000 1.000000 6.000000 
85605.158997 446824.468018 5.602000 0.000000 0.000000 1.000000 1.000000 6.000000 
85605.270996 446825.433960 6.375000 0.000000 0.000000 1.000000 1.000000 6.000000 
85605.312012 446825.791992 6.548000 0.000000 0.000000 1.000000 1.000000 6.000000 
85604.991028 446822.748047 5.525000 0.000000 0.000000 1.000000 1.000000 6.000000 
85605.421997 446827.159058 5.562000 0.000000 0.000000 1.000000 1.000000 6.000000 
85604.922974 446822.098022 5.532000 0.000000 0.000000 1.000000 1.000000 6.000000 
85605.237976 446825.115967 6.190000 0.000000 0.000000 1.000000 1.000000 6.000000 
85605.018982 446823.078979 5.518000 0.000000 0.000000 1.000000 1.000000 6.000000 
85604.955994 446822.425049 5.525000 0.000000 0.000000 1.000000 1.000000 6.000000 
85604.859009 446821.395996 5.538000 -1.000000 0.000000 1.000000 1.000000 6.000000 
85605.200012 446824.781006 6.010000 0.000000 0.000000 1.000000 1.000000 6.000000 
85606.213013 446835.254028 5.532000 1.000000 0.000000 1.000000 1.000000 6.000000 
85605.120972 446824.109009 5.533000 0.000000 0.000000 1.000000 1.000000 6.000000 
85604.723999 446820.056030 5.532000 -1.000000 0.000000 1.000000 1.000000 6.000000 
85605.581970 446828.833008 5.536000 0.000000 0.000000 1.000000 1.000000 6.000000 
85604.789001 446820.714966 5.543000 -1.000000 0.000000 1.000000 1.000000 6.000000 
85604.661987 446819.380981 5.538000 -1.000000 0.000000 1.000000 1.000000 6.000000 
85604.893005 446821.751953 5.533000 0.000000 0.000000 1.000000 1.000000 6.000000 
85604.431030 446817.020020 5.540000 -1.000000 0.000000 1.000000 1.000000 6.000000 
85605.054016 446823.432983 5.538000 0.000000 0.000000 1.000000 1.000000 6.000000 
85604.559021 446818.358032 5.542000 -1.000000 0.000000 1.000000 1.000000 6.000000 
85604.594971 446818.703003 5.537000 -1.000000 0.000000 1.000000 1.000000 6.000000 
85604.377014 446816.354980 6.007000 -1.000000 0.000000 1.000000 1.000000 6.000000 
85604.627014 446819.036011 5.540000 -1.000000 0.000000 1.000000 1.000000 6.000000 
85604.828003 446821.076050 5.544000 -1.000000 0.000000 1.000000 1.000000 6.000000 
85604.760010 446820.390015 5.523000 -1.000000 0.000000 1.000000 1.000000 6.000000 
85604.693970 446819.737061 5.553000 -1.000000 0.000000 1.000000 1.000000 6.000000 
85604.525024 446818.020996 5.549000 -1.000000 0.000000 1.000000 1.000000 6.000000 
85604.460999 446817.368042 5.550000 -1.000000 0.000000 1.000000 1.000000 6.000000 
85604.395996 446816.661011 5.556000 -1.000000 0.000000 1.000000 1.000000 6.000000 
85604.494995 446817.696045 5.542000 -1.000000 0.000000 1.000000 1.000000 6.000000 
85605.840027 446831.191040 6.597000 1.000000 0.000000 1.000000 1.000000 6.000000 
85609.075989 446867.862061 5.993000 5.000000 0.000000 2.000000 1.000000 6.000000 
85608.875000 446865.805054 6.004000 5.000000 0.000000 2.000000 1.000000 6.000000 
85609.039978 446867.491943 6.009000 5.000000 0.000000 2.000000 1.000000 6.000000 
85608.744995 446864.462036 5.998000 5.000000 0.000000 1.000000 1.000000 6.000000 
85608.807983 446865.120972 6.006000 5.000000 0.000000 1.000000 1.000000 6.000000 
85608.911011 446866.156006 5.995000 5.000000 0.000000 2.000000 1.000000 6.000000 
85609.007996 446867.167969 6.016000 5.000000 0.000000 2.000000 1.000000 6.000000 
85608.776978 446864.782959 6.002000 5.000000 0.000000 1.000000 1.000000 6.000000 
85608.676025 446863.777954 6.008000 5.000000 0.000000 1.000000 1.000000 6.000000 
85608.578003 446862.739990 5.990000 5.000000 0.000000 1.000000 1.000000 6.000000 
85608.643982 446863.420044 5.994000 5.000000 0.000000 1.000000 1.000000 6.000000 
85608.711975 446864.124023 5.995000 5.000000 0.000000 1.000000 1.000000 6.000000 
85609.106018 446868.182983 5.996000 5.000000 0.000000 2.000000 1.000000 6.000000 
85608.841003 446865.473022 6.010000 5.000000 0.000000 1.000000 1.000000 6.000000 
85608.512024 446862.079956 5.981000 5.000000 0.000000 1.000000 1.000000 6.000000 
85608.408997 446861.056030 5.866000 5.000000 0.000000 1.000000 1.000000 6.000000 
85608.302979 446860.066040 5.620000 4.000000 0.000000 1.000000 1.000000 6.000000 
85608.278992 446859.723022 5.824000 4.000000 0.000000 1.000000 1.000000 6.000000 
85608.974976 446866.836060 5.993000 5.000000 0.000000 2.000000 1.000000 6.000000 
85608.481018 446861.756958 5.972000 5.000000 0.000000 1.000000 1.000000 6.000000 
85608.140015 446858.381958 5.575000 4.000000 0.000000 1.000000 1.000000 6.000000 
85608.041016 446857.364014 5.573000 4.000000 0.000000 1.000000 1.000000 6.000000 
85608.543030 446862.413940 5.990000 5.000000 0.000000 1.000000 1.000000 6.000000 
85608.101990 446858.016968 5.580000 4.000000 0.000000 1.000000 1.000000 6.000000 
85608.372009 446860.735962 5.768000 5.000000 0.000000 1.000000 1.000000 6.000000 
85608.073975 446857.699951 5.582000 4.000000 0.000000 1.000000 1.000000 6.000000 
85608.945984 446866.509033 6.026000 5.000000 0.000000 2.000000 1.000000 6.000000 
85607.971008 446856.673950 5.575000 4.000000 0.000000 1.000000 1.000000 6.000000 
85608.609985 446863.100952 5.993000 5.000000 0.000000 1.000000 1.000000 6.000000 
85607.840027 446855.316040 5.575000 4.000000 0.000000 1.000000 1.000000 6.000000 
85608.335999 446860.399048 5.654000 4.000000 0.000000 1.000000 1.000000 6.000000 
85608.239990 446859.402954 5.586000 4.000000 0.000000 1.000000 1.000000 6.000000 
85607.773010 446854.654053 5.567000 4.000000 0.000000 1.000000 1.000000 6.000000 
85608.007996 446857.037964 5.561000 4.000000 0.000000 1.000000 1.000000 6.000000 
85607.674011 446853.628052 5.555000 4.000000 0.000000 1.000000 1.000000 6.000000 
85607.872986 446855.652954 5.566000 4.000000 0.000000 1.000000 1.000000 6.000000 
85607.903015 446855.995972 5.571000 4.000000 0.000000 1.000000 1.000000 6.000000 
85607.702026 446853.948975 5.554000 4.000000 0.000000 1.000000 1.000000 6.000000 
85607.573975 446852.614990 5.563000 3.000000 0.000000 1.000000 1.000000 6.000000 
85607.806030 446854.993042 5.576000 4.000000 0.000000 1.000000 1.000000 6.000000 
85607.739990 446854.308960 5.563000 4.000000 0.000000 1.000000 1.000000 6.000000 
85607.469971 446851.584961 5.552000 3.000000 0.000000 1.000000 1.000000 6.000000 
85608.205017 446859.057007 5.582000 4.000000 0.000000 1.000000 1.000000 6.000000 
85607.937012 446856.327026 5.572000 4.000000 0.000000 1.000000 1.000000 6.000000 
85607.635986 446853.265015 5.557000 4.000000 0.000000 1.000000 1.000000 6.000000 
85608.443970 446861.397949 5.939000 5.000000 0.000000 1.000000 1.000000 6.000000 
85607.341003 446850.254028 5.563000 3.000000 0.000000 1.000000 1.000000 6.000000 
85607.228027 446848.836060 6.483000 3.000000 0.000000 1.000000 1.000000 6.000000 
85607.189026 446848.475952 6.497000 3.000000 0.000000 1.000000 1.000000 6.000000 
85607.375000 446850.572021 5.548000 3.000000 0.000000 1.000000 1.000000 6.000000 
85607.607971 446852.953979 5.566000 4.000000 0.000000 1.000000 1.000000 6.000000 
85607.505005 446851.932007 5.556000 3.000000 0.000000 1.000000 1.000000 6.000000 
85607.276001 446849.569946 5.580000 3.000000 0.000000 1.000000 1.000000 6.000000 
85607.007019 446846.852051 5.548000 3.000000 0.000000 1.000000 1.000000 6.000000 
85607.107971 446847.876953 5.557000 3.000000 0.000000 1.000000 1.000000 6.000000 
85607.080017 446847.556030 5.554000 3.000000 0.000000 1.000000 1.000000 6.000000 
85607.046021 446847.196045 5.550000 3.000000 0.000000 1.000000 1.000000 6.000000 
85607.544006 446852.298950 5.555000 3.000000 0.000000 1.000000 1.000000 6.000000 
85606.880005 446845.510010 5.549000 3.000000 0.000000 1.000000 1.000000 6.000000 
85607.257019 446849.151978 6.488000 3.000000 0.000000 1.000000 1.000000 6.000000 
85608.168030 446858.697021 5.579000 4.000000 0.000000 1.000000 1.000000 6.000000 
85606.706970 446843.788940 5.547000 2.000000 0.000000 1.000000 1.000000 6.000000 
85606.908020 446845.831055 5.559000 3.000000 0.000000 1.000000 1.000000 6.000000 
85607.440979 446851.249023 5.557000 3.000000 0.000000 1.000000 1.000000 6.000000 
85607.406006 446850.901001 5.561000 3.000000 0.000000 1.000000 1.000000 6.000000 
85606.643005 446843.135986 5.542000 2.000000 0.000000 1.000000 1.000000 6.000000 
85607.309998 446849.917969 5.566000 3.000000 0.000000 1.000000 1.000000 6.000000 
85606.616028 446842.822998 5.554000 2.000000 0.000000 1.000000 1.000000 6.000000 
85606.510986 446841.781982 5.562000 2.000000 0.000000 1.000000 1.000000 6.000000 
85606.580994 446842.458984 5.545000 2.000000 0.000000 1.000000 1.000000 6.000000 
85606.848022 446845.182007 5.547000 3.000000 0.000000 1.000000 1.000000 6.000000 
85606.382996 446840.441040 5.552000 2.000000 0.000000 1.000000 1.000000 6.000000 
85606.447021 446841.098022 5.532000 2.000000 0.000000 1.000000 1.000000 6.000000 
85606.351013 446840.099976 5.555000 2.000000 0.000000 1.000000 1.000000 6.000000 
85606.247986 446839.062012 5.531000 2.000000 0.000000 1.000000 1.000000 6.000000 
85607.145996 446848.201050 5.654000 3.000000 0.000000 1.000000 1.000000 6.000000 
85606.744019 446844.150024 5.547000 2.000000 0.000000 1.000000 1.000000 6.000000 
85606.151001 446838.082031 5.547000 2.000000 0.000000 1.000000 1.000000 6.000000 
85606.476990 446841.426025 5.548000 2.000000 0.000000 1.000000 1.000000 6.000000 
85606.317017 446839.734985 5.684000 2.000000 0.000000 1.000000 1.000000 6.000000 
85606.216003 446838.739014 5.518000 2.000000 0.000000 1.000000 1.000000 6.000000 
85606.676025 446843.472046 5.555000 2.000000 0.000000 1.000000 1.000000 6.000000 
85606.283997 446839.421997 5.544000 2.000000 0.000000 1.000000 1.000000 6.000000 
85606.184021 446838.399048 5.554000 2.000000 0.000000 1.000000 1.000000 6.000000 
85606.413025 446840.776978 5.545000 2.000000 0.000000 1.000000 1.000000 6.000000 
85605.953979 446836.043945 5.542000 1.000000 0.000000 1.000000 1.000000 6.000000 
85605.882996 446835.364990 5.544000 1.000000 0.000000 1.000000 1.000000 6.000000 
85606.940002 446846.163940 5.539000 3.000000 0.000000 1.000000 1.000000 6.000000 
85606.778015 446844.473022 5.567000 2.000000 0.000000 1.000000 1.000000 6.000000 
85606.974976 446846.508057 5.561000 3.000000 0.000000 1.000000 1.000000 6.000000 
85606.114990 446837.722046 5.539000 2.000000 0.000000 1.000000 1.000000 6.000000 
85606.052002 446837.043945 5.586000 1.000000 0.000000 1.000000 1.000000 6.000000 
85605.653015 446832.989014 5.547000 1.000000 0.000000 1.000000 1.000000 6.000000 
85605.817017 446834.692017 5.549000 1.000000 0.000000 1.000000 1.000000 6.000000 
85606.081970 446837.380005 5.549000 2.000000 0.000000 1.000000 1.000000 6.000000 
85605.552002 446831.972046 5.561000 1.000000 0.000000 1.000000 1.000000 6.000000 
85606.544983 446842.114014 5.550000 2.000000 0.000000 1.000000 1.000000 6.000000 
85606.018005 446836.704956 5.531000 1.000000 0.000000 1.000000 1.000000 6.000000 
85605.851990 446835.008057 5.556000 1.000000 0.000000 1.000000 1.000000 6.000000 
85605.585022 446832.318970 5.553000 1.000000 0.000000 1.000000 1.000000 6.000000 
85605.754028 446834.009033 5.546000 1.000000 0.000000 1.000000 1.000000 6.000000 
85605.357971 446829.954956 5.592000 1.000000 0.000000 1.000000 1.000000 6.000000 
85605.781982 446834.332031 5.533000 1.000000 0.000000 1.000000 1.000000 6.000000 
85605.919983 446835.708984 5.534000 1.000000 0.000000 1.000000 1.000000 6.000000 
85605.424011 446830.635986 5.540000 1.000000 0.000000 1.000000 1.000000 6.000000 
85605.229980 446828.625977 5.704000 0.000000 0.000000 1.000000 1.000000 6.000000 
85605.286987 446829.284058 5.530000 0.000000 0.000000 1.000000 1.000000 6.000000 
85605.257996 446828.948975 5.540000 0.000000 0.000000 1.000000 1.000000 6.000000 
85605.456970 446830.982056 5.536000 1.000000 0.000000 1.000000 1.000000 6.000000 
85606.814026 446844.834961 5.549000 2.000000 0.000000 1.000000 1.000000 6.000000 
85605.619995 446832.646973 5.548000 1.000000 0.000000 1.000000 1.000000 6.000000 
85605.026978 446826.593994 5.557000 0.000000 0.000000 1.000000 1.000000 6.000000 
85605.718018 446833.667969 5.544000 1.000000 0.000000 1.000000 1.000000 6.000000 
85605.487976 446831.314941 5.545000 1.000000 0.000000 1.000000 1.000000 6.000000 
85604.994995 446826.255981 5.563000 0.000000 0.000000 1.000000 1.000000 6.000000 
85605.518982 446831.635986 5.560000 1.000000 0.000000 1.000000 1.000000 6.000000 
85604.908997 446825.225952 6.217000 0.000000 0.000000 1.000000 1.000000 6.000000 
85604.947021 446825.546021 6.418000 0.000000 0.000000 1.000000 1.000000 6.000000 
85605.059021 446826.911011 5.550000 0.000000 0.000000 1.000000 1.000000 6.000000 
85604.984985 446825.902954 6.629000 0.000000 0.000000 2.000000 1.000000 6.000000 
85604.831970 446824.555054 5.699000 0.000000 0.000000 1.000000 1.000000 6.000000 
85604.958984 446825.905029 5.572000 0.000000 0.000000 2.000000 2.000000 6.000000 
85605.981018 446836.365967 5.553000 1.000000 0.000000 1.000000 1.000000 6.000000 
85605.192017 446828.265015 5.548000 0.000000 0.000000 1.000000 1.000000 6.000000 
85605.687012 446833.353027 5.541000 1.000000 0.000000 1.000000 1.000000 6.000000 
85605.124023 446827.583984 5.551000 0.000000 0.000000 1.000000 1.000000 6.000000 
85604.796997 446824.223022 5.518000 0.000000 0.000000 1.000000 1.000000 6.000000 
85605.385010 446830.277954 5.549000 1.000000 0.000000 1.000000 1.000000 6.000000 
85605.091980 446827.244019 5.558000 0.000000 0.000000 1.000000 1.000000 6.000000 
85604.593018 446822.178955 5.516000 0.000000 0.000000 1.000000 1.000000 6.000000 
85605.153992 446827.921997 5.549000 0.000000 0.000000 1.000000 1.000000 6.000000 
85605.322021 446829.599976 5.554000 1.000000 0.000000 1.000000 1.000000 6.000000 
85604.533020 446821.531006 5.528000 -1.000000 0.000000 1.000000 1.000000 6.000000 
85604.364014 446819.819946 5.540000 -1.000000 0.000000 1.000000 1.000000 6.000000 
85604.495972 446821.188965 5.545000 -1.000000 0.000000 1.000000 1.000000 6.000000 
85604.692993 446823.191040 5.531000 0.000000 0.000000 1.000000 1.000000 6.000000 
85604.429016 446820.500000 5.515000 -1.000000 0.000000 1.000000 1.000000 6.000000 
85604.229980 446818.468018 5.538000 -1.000000 0.000000 1.000000 1.000000 6.000000 
85604.333008 446819.495972 5.537000 -1.000000 0.000000 1.000000 1.000000 6.000000 
85604.163025 446817.786011 5.536000 -1.000000 0.000000 1.000000 1.000000 6.000000 
85604.869019 446824.869019 6.028000 0.000000 0.000000 1.000000 1.000000 6.000000 
85604.301025 446819.172974 5.539000 -1.000000 0.000000 1.000000 1.000000 6.000000 
85604.393005 446820.145020 5.541000 -1.000000 0.000000 1.000000 1.000000 6.000000 
85604.132996 446817.452026 5.539000 -1.000000 0.000000 1.000000 1.000000 6.000000 
85604.627991 446822.515991 5.526000 0.000000 0.000000 1.000000 1.000000 6.000000 
85604.463989 446820.826050 5.538000 -1.000000 0.000000 1.000000 1.000000 6.000000 
85604.762024 446823.901978 5.525000 0.000000 0.000000 1.000000 1.000000 6.000000 
85604.010010 446816.108032 6.018000 -1.000000 0.000000 1.000000 1.000000 6.000000 
85604.197021 446818.128052 5.530000 -1.000000 0.000000 1.000000 1.000000 6.000000 
85604.099976 446817.133057 5.538000 -1.000000 0.000000 1.000000 1.000000 6.000000 
85604.564026 446821.864990 5.525000 0.000000 0.000000 1.000000 1.000000 6.000000 
85604.658020 446822.858032 5.516000 0.000000 0.000000 1.000000 1.000000 6.000000 
85604.263000 446818.818970 5.544000 -1.000000 0.000000 1.000000 1.000000 6.000000 
85604.067017 446816.801025 5.546000 -1.000000 0.000000 1.000000 1.000000 6.000000 
85604.036011 446816.458008 5.566000 -1.000000 0.000000 1.000000 1.000000 6.000000 
85604.729004 446823.540039 5.524000 0.000000 0.000000 1.000000 1.000000 6.000000 
85607.901978 446860.133057 6.010000 4.000000 0.000000 2.000000 1.000000 6.000000 
85607.835022 446859.447998 6.024000 4.000000 0.000000 2.000000 1.000000 6.000000 
85607.768982 446858.790039 6.008000 4.000000 0.000000 2.000000 1.000000 6.000000 
85607.867004 446859.787964 6.003000 4.000000 0.000000 2.000000 1.000000 6.000000 
85607.668030 446857.764038 5.996000 4.000000 0.000000 2.000000 1.000000 6.000000 
85607.799988 446859.128052 6.004000 4.000000 0.000000 3.000000 1.000000 6.000000 
85607.567017 446856.748047 5.996000 4.000000 0.000000 1.000000 1.000000 6.000000 
85607.736023 446858.443970 6.010000 4.000000 0.000000 2.000000 1.000000 6.000000 
85607.534973 446856.425049 6.004000 4.000000 0.000000 1.000000 1.000000 6.000000 
85607.465027 446855.718994 5.991000 4.000000 0.000000 1.000000 1.000000 6.000000 
85607.502014 446856.062988 6.005000 4.000000 0.000000 1.000000 1.000000 6.000000 
85607.333984 446854.385986 5.994000 4.000000 0.000000 1.000000 1.000000 6.000000 
85607.599976 446857.083984 6.000000 4.000000 0.000000 1.000000 1.000000 6.000000 
85607.700989 446858.086060 6.006000 4.000000 0.000000 2.000000 1.000000 6.000000 
85607.398987 446855.038940 5.989000 4.000000 0.000000 1.000000 1.000000 6.000000 
85607.197998 446853.031982 5.871000 4.000000 0.000000 1.000000 1.000000 6.000000 
85606.994019 446851.004028 5.584000 3.000000 0.000000 1.000000 1.000000 6.000000 
85607.268005 446853.703003 5.970000 4.000000 0.000000 1.000000 1.000000 6.000000 
85607.299988 446854.052002 5.989000 4.000000 0.000000 1.000000 1.000000 6.000000 
85607.094971 446852.029053 5.629000 3.000000 0.000000 1.000000 1.000000 6.000000 
85606.833984 446849.333984 5.626000 3.000000 0.000000 1.000000 1.000000 6.000000 
85607.062988 446851.708008 5.614000 3.000000 0.000000 1.000000 1.000000 6.000000 
85607.026001 446851.355957 5.583000 3.000000 0.000000 1.000000 1.000000 6.000000 
85607.163025 446852.676025 5.742000 4.000000 0.000000 1.000000 1.000000 6.000000 
85606.892029 446849.988037 5.561000 3.000000 0.000000 1.000000 1.000000 6.000000 
85607.367981 446854.703003 5.996000 4.000000 0.000000 1.000000 1.000000 6.000000 
85606.927002 446850.322998 5.580000 3.000000 0.000000 1.000000 1.000000 6.000000 
85606.862976 446849.670044 5.561000 3.000000 0.000000 1.000000 1.000000 6.000000 
85606.598022 446846.973999 5.560000 3.000000 0.000000 1.000000 1.000000 6.000000 
85606.630981 446847.291992 5.546000 3.000000 0.000000 1.000000 1.000000 6.000000 
85606.562012 446846.613037 5.559000 3.000000 0.000000 1.000000 1.000000 6.000000 
85607.130981 446852.364014 5.646000 3.000000 0.000000 1.000000 1.000000 6.000000 
85606.960999 446850.666992 5.581000 3.000000 0.000000 1.000000 1.000000 6.000000 
85606.461975 446845.583984 5.558000 3.000000 0.000000 1.000000 1.000000 6.000000 
85607.432007 446855.385986 5.989000 4.000000 0.000000 1.000000 1.000000 6.000000 
85606.661011 446847.629028 5.539000 3.000000 0.000000 1.000000 1.000000 6.000000 
85607.234009 446853.344971 5.955000 4.000000 0.000000 1.000000 1.000000 6.000000 
85606.268005 446843.577026 5.559000 2.000000 0.000000 1.000000 1.000000 6.000000 
85606.364990 446844.597046 5.563000 2.000000 0.000000 1.000000 1.000000 6.000000 
85606.330017 446844.255005 5.549000 2.000000 0.000000 1.000000 1.000000 6.000000 
85607.632019 446857.402954 5.996000 4.000000 0.000000 1.000000 1.000000 6.000000 
85606.135986 446842.239014 5.544000 2.000000 0.000000 1.000000 1.000000 6.000000 
85606.799011 446848.994019 5.563000 3.000000 0.000000 1.000000 1.000000 6.000000 
85606.197998 446842.890015 5.559000 2.000000 0.000000 1.000000 1.000000 6.000000 
85606.528992 446846.267944 5.558000 3.000000 0.000000 1.000000 1.000000 6.000000 
85606.497009 446845.930054 5.548000 3.000000 0.000000 1.000000 1.000000 6.000000 
85606.163025 446842.560059 5.546000 2.000000 0.000000 1.000000 1.000000 6.000000 
85605.966003 446840.515991 5.543000 2.000000 0.000000 1.000000 1.000000 6.000000 
85605.901978 446839.859009 5.551000 2.000000 0.000000 1.000000 1.000000 6.000000 
85606.294983 446843.892944 5.560000 2.000000 0.000000 1.000000 1.000000 6.000000 
85606.728027 446848.308960 5.575000 3.000000 0.000000 1.000000 1.000000 6.000000 
85606.432007 446845.253052 5.556000 3.000000 0.000000 1.000000 1.000000 6.000000 
85606.067017 446841.536987 5.552000 2.000000 0.000000 1.000000 1.000000 6.000000 
85606.763977 446848.619019 5.750000 3.000000 0.000000 1.000000 1.000000 6.000000 
85606.231995 446843.213013 5.558000 2.000000 0.000000 1.000000 1.000000 6.000000 
85605.786987 446838.452026 6.473000 2.000000 0.000000 1.000000 1.000000 6.000000 
85605.721008 446837.796021 6.469000 2.000000 0.000000 1.000000 1.000000 6.000000 
85606.101013 446841.876953 5.570000 2.000000 0.000000 1.000000 1.000000 6.000000 
85606.031006 446841.197021 5.554000 2.000000 0.000000 1.000000 1.000000 6.000000 
85605.997986 446840.854004 5.560000 2.000000 0.000000 1.000000 1.000000 6.000000 
85605.869019 446839.517944 5.563000 2.000000 0.000000 1.000000 1.000000 6.000000 
85605.638000 446837.144043 5.564000 2.000000 0.000000 1.000000 1.000000 6.000000 
85605.831970 446839.159058 5.624000 2.000000 0.000000 1.000000 1.000000 6.000000 
85605.601013 446836.800049 5.548000 1.000000 0.000000 1.000000 1.000000 6.000000 
85606.695007 446847.947021 5.553000 3.000000 0.000000 1.000000 1.000000 6.000000 
85605.440002 446835.135986 5.543000 1.000000 0.000000 1.000000 1.000000 6.000000 
85606.396973 446844.927979 5.563000 3.000000 0.000000 1.000000 1.000000 6.000000 
85605.403015 446834.791016 5.547000 1.000000 0.000000 1.000000 1.000000 6.000000 
85605.367981 446834.423950 5.545000 1.000000 0.000000 1.000000 1.000000 6.000000 
85605.237000 446833.098022 5.551000 1.000000 0.000000 1.000000 1.000000 6.000000 
85605.799011 446838.843018 5.566000 2.000000 0.000000 1.000000 1.000000 6.000000 
85605.338989 446834.112061 5.533000 1.000000 0.000000 1.000000 1.000000 6.000000 
85605.932007 446840.199951 5.540000 2.000000 0.000000 1.000000 1.000000 6.000000 
85605.757019 446838.134033 6.472000 2.000000 0.000000 1.000000 1.000000 6.000000 
85605.304993 446833.753052 5.542000 1.000000 0.000000 1.000000 1.000000 6.000000 
85605.205994 446832.776001 5.551000 1.000000 0.000000 1.000000 1.000000 6.000000 
85605.106018 446831.734985 5.554000 1.000000 0.000000 1.000000 1.000000 6.000000 
85605.039978 446831.063965 5.548000 1.000000 0.000000 1.000000 1.000000 6.000000 
85605.135986 446832.076050 5.558000 1.000000 0.000000 1.000000 1.000000 6.000000 
85604.973999 446830.405029 5.542000 1.000000 0.000000 1.000000 1.000000 6.000000 
85605.570007 446836.465942 5.544000 1.000000 0.000000 1.000000 1.000000 6.000000 
85604.836975 446829.019043 5.550000 0.000000 0.000000 1.000000 1.000000 6.000000 
85605.270996 446833.431030 5.564000 1.000000 0.000000 1.000000 1.000000 6.000000 
85604.773987 446828.369019 5.547000 0.000000 0.000000 1.000000 1.000000 6.000000 
85604.872986 446829.381958 5.574000 1.000000 0.000000 1.000000 1.000000 6.000000 
85605.674011 446837.506958 5.561000 2.000000 0.000000 1.000000 1.000000 6.000000 
85604.742981 446828.053955 5.540000 0.000000 0.000000 1.000000 1.000000 6.000000 
85604.643982 446827.014038 5.552000 0.000000 0.000000 1.000000 1.000000 6.000000 
85605.500977 446835.791016 5.541000 1.000000 0.000000 1.000000 1.000000 6.000000 
85605.471985 446835.467041 5.545000 1.000000 0.000000 1.000000 1.000000 6.000000 
85605.169983 446832.420044 5.556000 1.000000 0.000000 1.000000 1.000000 6.000000 
85604.513977 446825.682983 5.543000 0.000000 0.000000 1.000000 1.000000 6.000000 
85604.544006 446826.015015 5.551000 0.000000 0.000000 1.000000 1.000000 6.000000 
85604.942017 446830.061035 5.534000 1.000000 0.000000 1.000000 1.000000 6.000000 
85605.070007 446831.396973 5.550000 1.000000 0.000000 1.000000 1.000000 6.000000 
85604.476013 446825.338989 5.551000 0.000000 0.000000 1.000000 1.000000 6.000000 
85604.578979 446826.336060 5.612000 0.000000 0.000000 1.000000 1.000000 6.000000 
85605.533997 446836.123047 5.558000 1.000000 0.000000 1.000000 1.000000 6.000000 
85604.244019 446822.965942 5.513000 0.000000 0.000000 1.000000 1.000000 6.000000 
85604.283020 446823.328003 5.526000 0.000000 0.000000 1.000000 1.000000 6.000000 
85604.309998 446823.645996 5.537000 0.000000 0.000000 1.000000 1.000000 6.000000 
85604.341980 446823.978027 5.529000 0.000000 0.000000 1.000000 1.000000 6.000000 
85604.606995 446826.663940 5.550000 0.000000 0.000000 1.000000 1.000000 6.000000 
85604.377014 446824.295044 5.534000 0.000000 0.000000 1.000000 1.000000 6.000000 
85604.049988 446820.953003 5.544000 -1.000000 0.000000 1.000000 1.000000 6.000000 
85605.010010 446830.744995 5.546000 1.000000 0.000000 1.000000 1.000000 6.000000 
85604.443970 446824.973022 5.542000 0.000000 0.000000 1.000000 1.000000 6.000000 
85603.948975 446819.927002 5.541000 -1.000000 0.000000 1.000000 1.000000 6.000000 
85604.672974 446827.348022 5.555000 0.000000 0.000000 1.000000 1.000000 6.000000 
85604.015015 446820.610962 5.540000 -1.000000 0.000000 1.000000 1.000000 6.000000 
85604.908020 446829.703979 5.554000 1.000000 0.000000 1.000000 1.000000 6.000000 
85603.879028 446819.253052 5.543000 -1.000000 0.000000 1.000000 1.000000 6.000000 
85604.809021 446828.703979 5.558000 0.000000 0.000000 1.000000 1.000000 6.000000 
85603.750000 446817.892944 5.551000 -1.000000 0.000000 1.000000 1.000000 6.000000 
85603.981018 446820.254028 5.544000 -1.000000 0.000000 1.000000 1.000000 6.000000 
85603.848999 446818.913940 5.535000 -1.000000 0.000000 1.000000 1.000000 6.000000 
85604.109985 446821.604004 5.530000 0.000000 0.000000 1.000000 1.000000 6.000000 
85603.650024 446816.878052 5.538000 -1.000000 0.000000 1.000000 1.000000 6.000000 
85604.143005 446821.942017 5.526000 0.000000 0.000000 1.000000 1.000000 6.000000 
85603.560974 446815.891968 6.010000 -1.000000 0.000000 2.000000 1.000000 6.000000 
85604.409973 446824.656006 5.539000 0.000000 0.000000 1.000000 1.000000 6.000000 
85603.716003 446817.560059 5.544000 -1.000000 0.000000 1.000000 1.000000 6.000000 
85603.614990 446816.560059 5.542000 -1.000000 0.000000 1.000000 1.000000 6.000000 
85603.682983 446817.213989 5.543000 -1.000000 0.000000 1.000000 1.000000 6.000000 
85604.708008 446827.688965 5.545000 0.000000 0.000000 1.000000 1.000000 6.000000 
85604.181030 446822.286011 5.519000 0.000000 0.000000 1.000000 1.000000 6.000000 
85603.780029 446818.240967 5.539000 -1.000000 0.000000 1.000000 1.000000 6.000000 
85603.588989 446816.227051 5.640000 -1.000000 0.000000 1.000000 1.000000 6.000000 
85604.210022 446822.621948 5.511000 0.000000 0.000000 1.000000 1.000000 6.000000 
85604.080017 446821.287964 5.532000 -1.000000 0.000000 1.000000 1.000000 6.000000 
85603.820007 446818.600952 5.544000 -1.000000 0.000000 1.000000 1.000000 6.000000 
85603.913025 446819.567017 5.535000 -1.000000 0.000000 1.000000 1.000000 6.000000 
85606.820007 446853.870972 5.048000 4.000000 0.000000 2.000000 1.000000 6.000000 
85606.716980 446852.826050 5.047000 4.000000 0.000000 2.000000 1.000000 6.000000 
85606.666016 446852.090942 5.979000 3.000000 0.000000 2.000000 1.000000 6.000000 
85606.570984 446851.112061 6.023000 3.000000 0.000000 2.000000 1.000000 6.000000 
85606.536987 446850.754028 6.004000 3.000000 0.000000 2.000000 1.000000 6.000000 
85606.687988 446852.509033 5.054000 3.000000 0.000000 2.000000 1.000000 6.000000 
85606.502991 446850.407959 6.001000 3.000000 0.000000 2.000000 1.000000 6.000000 
85606.471008 446850.069946 6.006000 3.000000 0.000000 2.000000 1.000000 6.000000 
85606.755981 446853.192993 5.052000 4.000000 0.000000 2.000000 1.000000 6.000000 
85606.403992 446849.394043 5.997000 3.000000 0.000000 1.000000 1.000000 6.000000 
85606.786987 446853.536011 5.045000 4.000000 0.000000 2.000000 1.000000 6.000000 
85606.372986 446849.072998 5.995000 3.000000 0.000000 1.000000 1.000000 6.000000 
85606.604004 446851.431030 5.992000 3.000000 0.000000 2.000000 1.000000 6.000000 
85606.309021 446848.395020 6.002000 3.000000 0.000000 1.000000 1.000000 6.000000 
85606.635986 446851.766968 6.006000 3.000000 0.000000 2.000000 1.000000 6.000000 
85606.343018 446848.738037 5.995000 3.000000 0.000000 1.000000 1.000000 6.000000 
85606.242981 446847.712036 5.982000 3.000000 0.000000 1.000000 1.000000 6.000000 
85605.973999 446844.994995 5.919000 3.000000 0.000000 1.000000 1.000000 6.000000 
