ply
format ascii 1.0
comment Created by CloudCompare v2.12 alpha
comment Created 6/11/2021 2:24 PM
obj_info Generated by CloudCompare!
element vertex 626
property double x
property double y
property double z
property float nx
property float ny
property float nz
property float scalar_Normal_change_rate_(4.54979)
end_header
159155.533020 384398.554016 24.353001 0.226333 -0.397931 0.889058 0.050254 
159155.562012 384392.577026 20.940001 0.833950 -0.320750 0.449050 0.097195 
159155.572998 384398.499023 24.312000 0.231051 -0.412911 0.880976 0.046979 
159155.583984 384399.232971 25.042000 0.166453 -0.342697 0.924582 0.069586 
159155.593018 384391.650024 22.253000 0.657280 -0.417664 0.627328 0.092959 
159155.596008 384399.671997 25.459999 0.129389 -0.289457 0.948406 0.077447 
159155.606018 384391.731018 22.290001 0.666960 -0.402162 0.627240 0.093186 
159155.607971 384391.687988 19.184000 0.867406 -0.490640 -0.082945 0.112775 
159155.609985 384391.715027 21.264999 0.778284 -0.424075 0.463071 0.110582 
159155.616028 384393.070984 18.591999 0.951751 -0.296532 -0.078989 0.075359 
159155.630981 384399.903015 25.677000 0.115378 -0.252794 0.960616 0.085864 
159155.632996 384391.684998 20.221001 0.869337 -0.445852 0.213234 0.118702 
159155.637024 384400.302002 26.108999 0.078008 -0.166817 0.982897 0.093122 
159155.658997 384399.556030 25.319000 0.137544 -0.317305 0.938296 0.076832 
159155.659973 384397.969971 23.872999 0.274394 -0.475927 0.835585 0.035748 
159155.666992 384398.953003 24.679001 0.192048 -0.385541 0.902483 0.058791 
159155.671997 384399.843994 25.631001 0.119094 -0.265672 0.956679 0.081258 
159155.703003 384392.497986 22.296000 0.722908 -0.325066 0.609701 0.083236 
159155.713013 384398.359985 24.077999 0.236385 -0.441152 0.865741 0.043061 
159155.716003 384393.130981 22.108999 0.720126 -0.304483 0.623465 0.081071 
159155.718994 384391.471985 22.018000 0.688055 -0.451484 0.568104 0.093131 
159155.747009 384392.202026 22.389999 0.688868 -0.340362 0.640012 0.085280 
159155.747009 384393.026978 22.013000 0.731982 -0.304054 0.609717 0.083867 
159155.752014 384396.302002 22.016001 0.397099 -0.397099 0.827421 0.095079 
159155.776001 384392.424011 20.403999 0.882801 -0.321430 0.342557 0.102053 
159155.788025 384392.401001 19.354000 0.939575 -0.333398 0.077749 0.096687 
159155.796021 384392.385010 22.299000 0.719253 -0.321643 0.615810 0.085318 
159155.835022 384396.854004 19.988001 -0.468361 0.606016 -0.642948 0.101170 
159155.838013 384397.068970 23.860001 0.328188 -0.480392 0.813336 0.044690 
159155.859985 384399.362000 25.007999 0.158727 -0.358190 0.920057 0.070167 
159155.869019 384397.197998 23.850000 0.320698 -0.484996 0.813592 0.041723 
159155.875000 384398.291016 24.024000 0.238474 -0.460240 0.855166 0.038566 
159155.875977 384399.031006 24.712000 0.184074 -0.401483 0.897178 0.058843 
159155.880981 384397.372009 23.851000 0.306751 -0.489229 0.816430 0.039283 
159155.883972 384399.606018 25.275000 0.143730 -0.324419 0.934930 0.074961 
159155.921021 384391.512024 22.023001 0.716256 -0.428431 0.550839 0.097291 
159155.934021 384399.661987 25.319000 0.143489 -0.321143 0.936097 0.076064 
159155.991028 384391.906006 22.309999 0.724526 -0.343539 0.597530 0.096500 
159156.000977 384398.013977 23.923000 0.250945 -0.488035 0.835971 0.033588 
159156.004028 384392.288025 22.014000 0.780960 -0.311426 0.541402 0.091610 
159156.007996 384396.726013 19.353001 -0.507076 0.694509 -0.510423 0.118098 
159156.025024 384396.757019 22.405001 0.314961 -0.462256 0.828927 0.076927 
159156.038025 384398.158020 23.875999 0.236023 -0.479660 0.845115 0.034358 
159156.062988 384397.695007 23.761999 0.273455 -0.517221 0.810990 0.038140 
159156.109985 384396.715027 23.624001 0.310222 -0.450524 0.837132 0.060505 
159156.125977 384396.718994 23.754999 0.310657 -0.448034 0.838307 0.054545 
159156.129028 384396.880981 23.868000 0.309197 -0.469289 0.827142 0.049343 
159156.130005 384398.112976 23.702000 0.241653 -0.503316 0.829625 0.035331 
159156.142029 384399.028992 24.569000 0.172261 -0.415454 0.893154 0.054159 
159156.153015 384399.293030 24.811001 0.157035 -0.377733 0.912501 0.063051 
159156.169983 384398.827026 24.403999 0.179299 -0.430026 0.884833 0.047935 
159156.190002 384397.299011 23.858000 0.287060 -0.509806 0.810984 0.044213 
159156.208008 384397.588989 23.152000 0.276803 -0.561516 0.779795 0.053209 
159156.236023 384397.744995 23.230000 0.262055 -0.550786 0.792441 0.048870 
159156.247986 384398.502014 24.017000 0.202140 -0.477650 0.854979 0.039712 
159156.247986 384399.098022 24.612000 0.162322 -0.409397 0.897800 0.054433 
159156.252014 384397.705017 24.014000 0.252088 -0.511909 0.821219 0.032849 
159156.260010 384396.591980 22.021999 0.301144 -0.466539 0.831657 0.085732 
159156.333984 384397.051025 22.799999 0.272681 -0.506408 0.818044 0.071872 
159156.356018 384397.049011 23.886000 0.271586 -0.491959 0.827174 0.044769 
159156.375977 384396.630005 22.038000 0.273137 -0.461401 0.844101 0.087406 
159156.383972 384398.745972 24.169001 0.174097 -0.449140 0.876335 0.045077 
159156.437988 384398.642029 24.084999 0.178709 -0.465234 0.866960 0.041510 
159156.440002 384397.898987 23.337000 0.236634 -0.542866 0.805792 0.045213 
159156.497986 384397.388000 22.768000 0.243863 -0.548304 0.799933 0.064426 
159156.497986 384397.437988 22.780001 0.244236 -0.555364 0.794933 0.062070 
159156.513000 384396.879028 19.215000 -0.446690 0.740087 -0.502732 0.109633 
159156.523010 384396.901001 21.285999 0.272400 -0.546374 0.792006 0.090015 
159156.523987 384396.914978 22.273001 0.250110 -0.526629 0.812469 0.081112 
159156.528992 384396.885986 20.301001 0.347934 -0.619093 0.704035 0.088890 
159156.536987 384397.020996 24.025000 0.261180 -0.492997 0.829903 0.041690 
159156.705994 384397.716003 23.027000 0.224588 -0.568439 0.791478 0.055962 
159156.739014 384397.153015 22.405001 0.215708 -0.527795 0.821525 0.075186 
159156.747009 384397.607971 22.868999 0.220558 -0.566049 0.794319 0.060034 
159156.789978 384397.185974 22.438999 0.208659 -0.531546 0.820927 0.073525 
159156.940002 384397.060974 20.819000 0.214971 -0.598516 0.771730 0.086279 
159156.987976 384396.906006 20.287001 0.240732 -0.665553 0.706461 0.094295 
159157.015015 384396.984009 18.961000 -0.324809 0.779222 -0.536015 0.097332 
159157.020996 384396.820007 21.995001 0.183968 -0.507034 0.842065 0.087591 
159157.031006 384396.987976 20.030001 -0.265950 0.689558 -0.673633 0.084364 
159157.068970 384396.992004 22.087000 0.174570 -0.508788 0.843007 0.081993 
159154.062988 384404.534973 22.480000 -0.328184 0.745285 0.580384 0.025300 
159154.257996 384404.218018 22.926001 -0.318391 0.728905 0.606074 0.020196 
159154.273987 384404.890991 19.903000 -0.379047 0.858657 0.345010 0.024720 
159154.297974 384404.848022 22.323999 -0.327630 0.753709 0.569720 0.023464 
159154.299988 384404.859985 21.049000 -0.363147 0.801483 0.475131 0.029505 
159154.354004 384404.168030 22.979000 -0.317767 0.727477 0.608113 0.019845 
159154.455994 384404.505981 22.729000 -0.321643 0.735416 0.596414 0.021177 
159154.510010 384404.015991 23.252001 -0.287254 0.665979 0.688446 0.017388 
159154.520020 384404.606018 22.634001 -0.321341 0.741184 0.589395 0.021325 
159154.570007 384404.629028 22.672001 -0.321496 0.738309 0.592909 0.020809 
159154.630981 384403.820007 23.434999 -0.264728 0.610301 0.746627 0.015736 
159154.648010 384403.000977 24.341000 -0.186616 0.436416 0.880179 0.056109 
159154.697021 384402.859985 24.493999 -0.171781 0.408522 0.896438 0.062828 
159154.716003 384405.085022 20.533001 -0.375722 0.822783 0.426452 0.027801 
159154.723999 384405.093018 19.289000 -0.400639 0.875359 0.270620 0.014099 
159154.747009 384404.987000 22.337999 -0.331113 0.754291 0.566930 0.022345 
159154.760986 384403.463013 23.891001 -0.225360 0.525839 0.820187 0.035507 
159154.767029 384403.031982 24.356001 -0.185890 0.431791 0.882610 0.056475 
159154.786987 384403.794983 23.584000 -0.256606 0.596648 0.760372 0.021623 
159154.807007 384404.239990 23.134001 -0.300752 0.699611 0.648145 0.016900 
159154.859985 384404.395996 23.028999 -0.310721 0.726088 0.613391 0.017768 
159154.882996 384404.932007 22.493999 -0.323903 0.746104 0.581735 0.020639 
159154.909973 384403.463989 23.947001 -0.218569 0.518146 0.826893 0.037010 
159154.911011 384402.789001 24.687000 -0.160206 0.378540 0.911615 0.071420 
159154.978027 384402.505981 24.936001 -0.141983 0.337727 0.930473 0.078574 
159155.039978 384404.617004 22.844000 -0.317767 0.727477 0.608113 0.018121 
159155.041016 384403.590027 23.893999 -0.225561 0.529378 0.817851 0.035943 
159155.085022 384403.893982 23.566999 -0.250108 0.596169 0.762908 0.021082 
159155.112000 384404.192993 23.347000 -0.276322 0.646880 0.710769 0.012910 
159155.158997 384401.984985 25.608000 -0.092868 0.242984 0.965575 0.095373 
159155.164978 384404.705994 22.829000 -0.314244 0.726789 0.610761 0.017821 
159155.187012 384403.114014 24.391001 -0.181606 0.416967 0.890594 0.059836 
159155.187988 384405.075989 22.473000 -0.321013 0.746880 0.582341 0.019876 
159155.193970 384402.562012 25.033001 -0.138238 0.327118 0.934818 0.078861 
159155.221008 384405.286011 22.292999 -0.330506 0.752910 0.569116 0.021108 
159155.234009 384404.567017 23.004999 -0.311448 0.724560 0.614827 0.015039 
159155.234985 384405.289001 20.987000 -0.360739 0.800038 0.479382 0.025307 
159155.239014 384402.174988 25.417000 -0.107478 0.260278 0.959533 0.092142 
159155.242004 384403.984009 23.587000 -0.245696 0.586853 0.771516 0.020246 
159155.328979 384404.252991 23.313999 -0.275493 0.635387 0.721379 0.013154 
159155.333984 384403.354004 24.247000 -0.194260 0.452284 0.870461 0.050012 
159155.364990 384403.536987 24.077999 -0.210166 0.491395 0.845199 0.043993 
159155.367981 384405.198975 19.316000 -0.399210 0.872797 0.280813 0.013497 
159155.395020 384403.966003 23.655001 -0.241873 0.578934 0.778674 0.022689 
159155.429016 384401.768982 25.930000 -0.077174 0.202123 0.976315 0.101140 
159155.455017 384402.776001 24.857000 -0.147896 0.335875 0.930223 0.076599 
159155.455017 384404.822998 23.948000 -0.280103 0.664243 0.693054 0.008241 
159155.456970 384404.471985 23.167000 -0.294401 0.686937 0.664414 0.013477 
159155.463013 384401.205994 27.372999 -0.015648 0.055290 0.998348 0.097005 
159155.481995 384402.138977 25.577999 -0.103706 0.244540 0.964077 0.094689 
159155.484985 384402.328003 25.384001 -0.116011 0.262003 0.958069 0.088697 
159155.489014 384404.697021 22.955999 -0.311334 0.727522 0.611377 0.014912 
159155.494019 384405.065979 22.627001 -0.317982 0.737654 0.595612 0.017604 
159155.497009 384405.051025 23.865000 -0.297336 0.686283 0.663782 0.009360 
159155.502991 384401.536011 26.219000 -0.052330 0.150013 0.987298 0.103681 
159155.533020 384402.950989 24.756001 -0.161464 0.358029 0.919644 0.071722 
159155.539978 384401.796021 25.924999 -0.074170 0.190897 0.978804 0.100620 
159155.562012 384402.504028 25.226999 -0.131644 0.280574 0.950762 0.083912 
159155.564026 384405.229980 23.747000 -0.308365 0.708755 0.634489 0.013311 
159155.581970 384403.155029 24.580000 -0.171047 0.398152 0.901231 0.062432 
159155.601013 384403.906006 23.794001 -0.230531 0.558535 0.796802 0.028919 
159155.642029 384404.302979 23.973000 -0.253430 0.606027 0.753992 0.016618 
159155.645020 384403.185974 24.513000 -0.170851 0.400567 0.900198 0.063707 
159155.646973 384403.763000 23.988001 -0.215110 0.517180 0.828404 0.038979 
159155.669983 384400.552979 26.252001 0.060334 -0.114977 0.991534 0.097418 
159155.690002 384401.557983 26.245001 -0.044261 0.128242 0.990755 0.105363 
159155.692993 384400.492981 27.364000 0.108091 -0.227627 0.967731 0.087360 
159155.705994 384404.271973 23.518999 -0.256736 0.600100 0.757606 0.016765 
159155.729004 384402.429016 25.322001 -0.114528 0.240637 0.963835 0.087125 
159155.742004 384402.120972 25.683001 -0.099482 0.217854 0.970898 0.099045 
159155.767029 384404.846008 22.975000 -0.318741 0.719998 0.616448 0.013831 
159155.780029 384404.320984 23.767000 -0.257221 0.598078 0.759039 0.015064 
159155.789001 384400.635010 27.084999 0.088198 -0.165521 0.982255 0.092562 
159155.820984 384401.440979 26.393999 -0.020338 0.080282 0.996565 0.106947 
159155.833008 384400.913025 27.490000 0.070192 -0.116219 0.990740 0.096586 
159155.844971 384405.568970 22.240999 -0.334560 0.745082 0.576994 0.018185 
159155.846008 384404.557007 23.804001 -0.264946 0.617150 0.740898 0.010900 
159155.875000 384402.919006 24.947001 -0.150598 0.335737 0.929839 0.075759 
159155.877014 384400.565002 26.326000 0.076304 -0.139694 0.987250 0.096411 
159155.885986 384405.362976 23.808001 -0.308558 0.699506 0.644580 0.011675 
159155.893005 384403.538025 24.275000 -0.190654 0.453728 0.870507 0.051798 
159155.898987 384400.119019 25.790001 0.107539 -0.216342 0.970377 0.087742 
159155.906982 384402.853027 24.985001 -0.143857 0.321966 0.935758 0.077384 
159155.909973 384404.724976 23.820000 -0.279639 0.634380 0.720669 0.008782 
159155.927979 384400.244019 25.888000 0.095095 -0.191426 0.976889 0.091382 
159155.940002 384403.528992 24.339001 -0.180467 0.441631 0.878860 0.051380 
159155.965027 384404.064026 23.879000 -0.237371 0.556968 0.795890 0.029649 
159155.976013 384401.330017 26.618000 -0.005053 0.029310 0.999558 0.108697 
159155.984009 384403.492981 24.412001 -0.176708 0.433738 0.883541 0.057505 
159155.989014 384405.486023 19.271999 -0.399210 0.872797 0.280813 0.009389 
159156.008972 384401.906006 26.018999 -0.075296 0.163738 0.983626 0.101413 
159156.010986 384402.075012 25.805000 -0.089589 0.187769 0.978119 0.098036 
159156.031982 384404.038025 23.916000 -0.226894 0.544855 0.807250 0.030246 
159156.052002 384403.984985 23.923000 -0.226143 0.539975 0.810732 0.031915 
159156.086975 384401.107971 26.712999 0.039478 -0.056550 0.997619 0.107907 
159156.142029 384400.379028 25.968000 0.103176 -0.192678 0.975823 0.090432 
159156.153015 384402.697021 25.278000 -0.124648 0.263729 0.956509 0.087002 
159156.163025 384401.093994 26.697001 0.042379 -0.072805 0.996445 0.106009 
159156.163025 384403.197998 24.723000 -0.163141 0.375934 0.912172 0.069384 
159156.168030 384399.963989 25.475000 0.134356 -0.278023 0.951132 0.082450 
159156.169983 384405.018005 23.761999 -0.293651 0.653094 0.698024 0.010914 
159156.179016 384402.507996 25.466000 -0.122821 0.239178 0.963176 0.090158 
159156.192017 384403.325989 24.648001 -0.170799 0.394703 0.902794 0.067302 
159156.203003 384399.908020 25.445999 0.135418 -0.288266 0.947926 0.080170 
159156.216980 384400.007996 25.507999 0.131173 -0.274272 0.952664 0.081423 
159156.229980 384403.851013 24.163000 -0.196104 0.480529 0.854772 0.044876 
159156.245972 384399.447021 24.962999 0.144028 -0.367760 0.918700 0.066262 
159156.257019 384400.593018 26.115000 0.090416 -0.162748 0.982516 0.095265 
159156.262024 384404.275024 23.850000 -0.244416 0.558887 0.792405 0.025566 
159156.270020 384401.697021 26.334999 -0.035708 0.074662 0.996569 0.102365 
159156.270996 384404.439026 23.792000 -0.256187 0.573670 0.777991 0.018022 
159156.312012 384401.695007 26.306999 -0.033269 0.069758 0.997009 0.103208 
159156.327026 384401.580994 26.538000 -0.017596 0.044509 0.998854 0.104580 
159156.333008 384403.630005 24.386999 -0.186134 0.435290 0.880839 0.057027 
159156.344971 384402.413025 25.618000 -0.106456 0.204145 0.973135 0.094489 
159156.351013 384401.033020 26.540001 0.052428 -0.097047 0.993898 0.101809 
159156.353027 384400.796997 26.224001 0.068544 -0.133603 0.988662 0.098526 
159156.364014 384401.973999 26.125000 -0.070596 0.126146 0.989497 0.101984 
159156.395020 384405.510986 23.767000 -0.312272 0.690882 0.652050 0.010795 
159156.414001 384402.487000 25.620001 -0.110248 0.219229 0.969424 0.092989 
159156.416992 384400.189026 25.663000 0.121092 -0.253902 0.959620 0.083422 
159156.421997 384400.914978 26.375999 0.058050 -0.117239 0.991406 0.100132 
159156.427002 384398.969971 24.379000 0.160845 -0.436166 0.885374 0.048770 
159156.429993 384402.859985 25.188999 -0.132809 0.296473 0.945762 0.086005 
159156.432007 384399.655029 25.056000 0.135876 -0.336258 0.931916 0.068622 
159156.443970 384404.684998 23.768999 -0.271259 0.594867 0.756671 0.012876 
159156.463989 384402.150024 25.937000 -0.081862 0.145928 0.985902 0.100694 
159156.466003 384404.624023 23.799999 -0.262851 0.577642 0.772813 0.015630 
159156.482971 384399.716003 25.143000 0.138696 -0.333695 0.932422 0.068557 
159156.482971 384403.091980 25.004000 -0.146539 0.321838 0.935386 0.079589 
159156.482971 384405.757019 22.318001 -0.332784 0.725631 0.602258 0.018129 
159156.531006 384403.609985 24.506001 -0.178297 0.410228 0.894384 0.061910 
159156.539001 384401.481018 26.740999 0.013166 -0.025319 0.999593 0.103568 
159156.539001 384405.747009 23.778999 -0.318664 0.697178 0.642180 0.010684 
159156.541016 384399.244019 24.642000 0.137358 -0.409240 0.902028 0.054456 
159156.570984 384401.366028 26.749001 0.017738 -0.051127 0.998535 0.103177 
159156.588013 384404.187988 23.965000 -0.231475 0.513536 0.826257 0.032764 
159156.612000 384400.491028 25.808001 0.093318 -0.205300 0.974240 0.090261 
159156.612976 384403.276001 24.861000 -0.152301 0.359094 0.920791 0.076462 
159156.658997 384398.421021 23.771000 0.181256 -0.510812 0.840368 0.034988 
159156.671021 384398.682983 24.011999 0.162802 -0.476671 0.863875 0.040594 
159156.677002 384405.166992 23.743999 -0.293434 0.639782 0.710335 0.009565 
159156.684021 384402.270996 25.922001 -0.071585 0.144344 0.986935 0.100486 
159156.692017 384399.349976 24.629000 0.130605 -0.403051 0.905810 0.056183 
159156.705017 384402.510986 25.666000 -0.087786 0.201537 0.975539 0.095655 
159156.705994 384400.716003 26.046000 0.078281 -0.174626 0.981518 0.093220 
159156.708008 384404.359985 23.820999 -0.242426 0.523456 0.816838 0.027374 
159156.715027 384399.981995 25.298000 0.118502 -0.299583 0.946682 0.072953 
159156.741028 384398.432007 23.808001 0.178255 -0.516790 0.837349 0.035540 
159156.757996 384402.870972 25.371000 -0.119094 0.265672 0.956679 0.088932 
159156.762024 384403.552979 24.681999 -0.173524 0.388636 0.904904 0.067506 
159156.763000 384401.770020 26.452999 -0.011141 0.025320 0.999617 0.103497 
159156.783997 384403.408020 24.825001 -0.159307 0.370776 0.914957 0.073419 
159156.786987 384399.504028 24.787001 0.129091 -0.376167 0.917515 0.059861 
159156.793030 384398.674011 24.018999 0.156684 -0.475910 0.865424 0.038892 
159156.796997 384401.262024 26.594000 0.035987 -0.086150 0.995632 0.100931 
159156.802002 384399.552979 24.841999 0.122560 -0.362171 0.924019 0.060135 
159156.820984 384398.056030 23.312000 0.190403 -0.565116 0.802739 0.044473 
159156.830994 384399.043030 24.330000 0.132887 -0.447244 0.884485 0.047123 
159156.836975 384402.929016 25.362000 -0.119738 0.275003 0.953958 0.089233 
159156.843994 384401.047974 26.287001 0.056209 -0.129625 0.989969 0.096115 
159156.846985 384403.981018 24.288000 -0.204096 0.457354 0.865547 0.049490 
159156.854004 384400.206970 25.400999 0.102945 -0.277561 0.955176 0.081060 
159156.872009 384402.948975 25.323999 -0.116641 0.271288 0.955405 0.091027 
159156.879028 384400.109009 25.318001 0.109487 -0.288886 0.951082 0.077488 
159156.887024 384404.729980 23.775000 -0.266570 0.569418 0.777627 0.016104 
159156.905029 384398.130981 23.391001 0.183620 -0.562999 0.805802 0.042212 
159156.914978 384406.033997 20.679001 -0.365823 0.809922 0.458476 0.025966 
159156.919983 384398.096985 24.034000 0.172256 -0.537737 0.825329 0.031647 
159156.947021 384402.059998 26.257999 -0.031187 0.072053 0.996913 0.102345 
159156.953979 384404.830994 23.733999 -0.273591 0.580392 0.767003 0.014688 
159156.955994 384398.338989 23.947001 0.159119 -0.527917 0.834257 0.033031 
159156.960022 384403.810974 24.495001 -0.188188 0.418681 0.888421 0.058028 
159156.966003 384404.286987 24.017000 -0.230077 0.492152 0.839554 0.036767 
159156.971008 384399.020996 24.194000 0.133216 -0.454081 0.880945 0.046615 
159156.971008 384400.533020 25.738001 0.086375 -0.226578 0.970155 0.085641 
159156.984009 384402.159973 26.146000 -0.038255 0.084161 0.995718 0.100967 
159156.987976 384399.794006 24.999001 0.103643 -0.337848 0.935477 0.066063 
159156.991028 384397.515991 22.650999 0.186686 -0.566128 0.802900 0.065721 
159156.992981 384403.999023 24.288000 -0.203867 0.447911 0.870525 0.050953 
159157.010986 384400.518982 25.674000 0.089573 -0.235917 0.967636 0.085894 
159157.018982 384401.453003 26.645000 0.033407 -0.072203 0.996830 0.100258 
159157.028992 384402.653992 25.681000 -0.090631 0.204850 0.974588 0.094599 
159157.039001 384401.091003 26.257999 0.051400 -0.129071 0.990302 0.094230 
159157.054993 384401.515015 26.742001 0.028743 -0.064937 0.997475 0.100862 
159157.059021 384401.080994 26.259001 0.053906 -0.131896 0.989797 0.094092 
159157.060974 384397.859985 23.826000 0.173387 -0.556347 0.812659 0.037984 
159157.068970 384403.179016 25.193001 -0.124474 0.298469 0.946268 0.084906 
159157.072021 384399.307007 24.468000 0.116409 -0.422159 0.899016 0.052144 
159157.078003 384404.981018 23.784000 -0.274565 0.588807 0.760211 0.012212 
159157.080994 384405.088989 23.757999 -0.282193 0.601054 0.747731 0.010491 
159157.085999 384405.877014 22.576000 -0.336250 0.709862 0.618896 0.018335 
159157.086975 384400.760986 25.879999 0.071684 -0.195612 0.978058 0.089639 
159157.098999 384398.857971 24.035000 0.128138 -0.479438 0.868171 0.042068 
159157.107971 384399.911011 24.989000 0.099575 -0.314656 0.943968 0.069286 
159157.112000 384405.916016 23.778000 -0.318764 0.690925 0.648855 0.010996 
159157.116028 384401.905029 26.497999 -0.004994 0.016980 0.999843 0.102612 
159157.138977 384403.745972 24.643999 -0.180800 0.400653 0.898214 0.064555 
159157.145996 384402.603027 25.768000 -0.084110 0.186505 0.978847 0.097296 
159157.187012 384397.773010 23.971001 0.159933 -0.557522 0.814611 0.038675 
159157.189026 384398.130981 23.858999 0.150321 -0.552170 0.820069 0.035753 
159157.205994 384398.346985 23.867001 0.133641 -0.541905 0.829746 0.034575 
159157.205994 384404.476013 23.938000 -0.237292 0.497548 0.834349 0.033541 
159157.210022 384398.031006 23.826000 0.150321 -0.552170 0.820069 0.036680 
159157.218018 384398.729980 23.861000 0.126117 -0.500118 0.856724 0.038618 
159157.218018 384401.840027 26.615999 0.004907 0.000981 0.999987 0.101841 
159157.219971 384404.500000 23.865999 -0.245416 0.507811 0.825772 0.032054 
159157.268005 384403.653015 24.733000 -0.168836 0.373142 0.912283 0.067148 
159157.278015 384400.320007 25.392000 0.086359 -0.274546 0.957688 0.075596 
159157.283997 384401.780029 26.677000 0.019358 -0.025471 0.999488 0.101030 
159157.286011 384402.447021 26.013000 -0.063876 0.138205 0.988342 0.099686 
159157.288025 384399.585999 24.645000 0.096753 -0.380197 0.919831 0.058249 
159157.289001 384401.135986 26.167999 0.057210 -0.152949 0.986577 0.092917 
159157.309998 384397.296997 22.353001 0.136741 -0.539611 0.830736 0.073436 
159157.325989 384397.271973 21.374001 0.135017 -0.589032 0.796751 0.087274 
159157.330017 384397.257996 20.430000 0.156278 -0.672149 0.723736 0.086362 
159157.335999 384400.887024 25.938000 0.069002 -0.190058 0.979345 0.087201 
159157.338989 384397.236023 19.461000 -0.238499 0.777849 -0.581438 0.079219 
159157.346008 384402.956970 25.533001 -0.101171 0.244604 0.964330 0.091191 
159157.348022 384400.455017 25.469000 0.082799 -0.261136 0.961744 0.079199 
159157.348999 384397.286011 23.513000 0.139214 -0.520220 0.842610 0.055591 
159157.349976 384404.760010 23.760000 -0.260995 0.542307 0.798614 0.022123 
159157.351013 384401.309998 26.372999 0.051618 -0.131912 0.989917 0.096392 
159157.359985 384406.213013 19.889999 -0.361016 0.864903 0.348726 0.020954 
159157.364990 384399.114990 24.148001 0.097114 -0.460235 0.882469 0.045872 
159157.367004 384406.184021 22.263000 -0.343005 0.720148 0.603104 0.020890 
159157.367981 384406.195984 21.103001 -0.356065 0.784632 0.507514 0.026716 
159157.370972 384399.101013 24.157000 0.100136 -0.466832 0.878659 0.045861 
159157.377991 384399.593994 24.566999 0.094190 -0.383584 0.918690 0.058022 
159157.390991 384403.543030 24.955999 -0.147999 0.341642 0.928104 0.073050 
159157.396973 384406.218018 23.907000 -0.315277 0.680675 0.661273 0.012042 
159157.408997 384397.583984 23.827999 0.127561 -0.549830 0.825479 0.043807 
159157.432007 384402.244019 26.250000 -0.026827 0.074043 0.996894 0.100654 
159157.437012 384397.468994 23.957001 0.124363 -0.539883 0.832502 0.044329 
159157.450012 384398.617004 23.847000 0.107829 -0.516140 0.849690 0.036933 
159157.468018 384404.265991 24.250999 -0.212963 0.442308 0.871212 0.044619 
159157.473022 384399.646973 24.599001 0.093816 -0.379344 0.920487 0.058525 
159157.473999 384397.708008 23.868999 0.121391 -0.554305 0.823414 0.043545 
159157.500000 384398.387024 23.820999 0.111643 -0.540817 0.833699 0.037454 
159157.502014 384404.143005 24.365000 -0.198942 0.431778 0.879767 0.051888 
159157.526001 384404.677002 23.895000 -0.238381 0.505982 0.828949 0.028462 
159157.526978 384401.489990 26.440001 0.041013 -0.098652 0.994277 0.096676 
159157.536011 384403.312988 25.204000 -0.120590 0.287560 0.950141 0.083147 
159157.538025 384400.844971 25.763000 0.070186 -0.215483 0.973982 0.084790 
159157.546997 384400.133972 25.073999 0.073782 -0.299009 0.951394 0.071252 
159157.549011 384402.237000 26.351999 -0.017773 0.053319 0.998419 0.100366 
159157.560974 384404.892029 23.747000 -0.257435 0.541393 0.800388 0.022142 
159157.572021 384402.442017 26.146000 -0.038714 0.098443 0.994389 0.097841 
159157.578979 384399.385010 24.325001 0.086648 -0.419487 0.903616 0.053514 
159157.590027 384400.171997 25.044001 0.073351 -0.292118 0.953565 0.071111 
159157.591980 384398.044006 23.857000 0.105749 -0.551924 0.827162 0.041112 
159157.593018 384401.583008 26.565001 0.033674 -0.081470 0.996107 0.099302 
159157.609009 384401.130005 26.049000 0.055523 -0.168933 0.984062 0.090812 
159157.609985 384397.090027 22.059999 0.086680 -0.512977 0.854015 0.083636 
159157.614014 384397.843994 23.865000 0.106003 -0.553249 0.826244 0.043482 
159157.614014 384402.991028 25.641001 -0.102806 0.227189 0.968409 0.087479 
159157.617981 384400.692993 25.639000 0.063189 -0.234172 0.970140 0.079194 
159157.619995 384402.736023 25.857000 -0.078772 0.180569 0.980403 0.094716 
159157.625977 384404.411987 24.139000 -0.219776 0.444036 0.868637 0.042929 
159157.633972 384400.034973 24.905001 0.080048 -0.321505 0.943518 0.066874 
159157.640991 384401.507996 26.437000 0.043580 -0.106156 0.993394 0.096246 
159157.645996 384405.267029 23.747999 -0.281094 0.589187 0.757526 0.012148 
159157.650024 384398.908020 23.868999 0.086156 -0.492925 0.865796 0.040016 
159157.651001 384399.271973 24.143000 0.084784 -0.446159 0.890929 0.048386 
159157.684021 384397.218994 22.056999 0.069351 -0.539241 0.839291 0.082197 
159157.684021 384403.309021 25.305000 -0.119738 0.275003 0.953958 0.081902 
159157.695007 384397.481018 22.291000 0.072339 -0.540416 0.838283 0.073126 
159157.703003 384400.573975 25.427999 0.066253 -0.248762 0.966296 0.077096 
159157.723999 384403.783997 24.834000 -0.155671 0.363233 0.918601 0.067136 
159157.726990 384397.398010 23.957001 0.083736 -0.515191 0.852975 0.049469 
159157.728027 384403.302979 25.372999 -0.117143 0.275089 0.954256 0.081916 
159157.731018 384401.864990 26.750999 0.019629 -0.040290 0.998995 0.102196 
159157.742981 384406.304016 23.872000 -0.312377 0.678165 0.665217 0.012000 
159157.747986 384405.067017 23.799000 -0.254087 0.544026 0.799672 0.018845 
159157.755005 384398.075012 23.832001 0.084550 -0.551722 0.829732 0.043828 
159157.755005 384404.034973 24.603001 -0.176303 0.388441 0.904451 0.057484 
159157.780029 384403.793030 24.846001 -0.155830 0.360795 0.919535 0.067111 
159157.791016 384400.547974 25.337999 0.066609 -0.257638 0.963943 0.074595 
159157.807983 384401.159973 25.969000 0.058101 -0.174303 0.982976 0.088145 
159157.807983 384402.969971 25.667999 -0.088243 0.212530 0.973162 0.091806 
159157.817017 384402.020020 26.737000 0.008955 -0.008955 0.999920 0.101625 
159157.827026 384404.679016 24.006001 -0.229331 0.481443 0.845943 0.038063 
159157.828979 384398.752991 23.864000 0.071646 -0.512760 0.855537 0.040290 
159157.849976 384399.924011 24.712000 0.072378 -0.338204 0.938285 0.061334 
159157.866028 384399.848022 24.628000 0.076189 -0.362231 0.928969 0.058706 
159157.866028 384405.249023 23.749001 -0.262166 0.563578 0.783358 0.016061 
159157.867004 384402.538025 26.194000 -0.045912 0.106381 0.993265 0.096229 
159157.875000 384401.385986 26.223000 0.046997 -0.138697 0.989219 0.092017 
159157.877014 384399.177002 24.011999 0.073356 -0.460894 0.884418 0.044827 
159157.900024 384397.588989 19.507999 -0.064241 0.792312 -0.606725 0.074021 
159157.901001 384398.976013 23.827999 0.071065 -0.486307 0.870893 0.042007 
159157.901978 384397.630005 22.448000 0.051818 -0.550395 0.833295 0.071963 
159157.901978 384400.927979 25.732000 0.059799 -0.213569 0.975096 0.081763 
159157.908997 384404.057007 24.617001 -0.173006 0.381758 0.907926 0.058543 
159157.911011 384400.489990 25.271999 0.069939 -0.270856 0.960076 0.070950 
159157.926025 384404.926025 23.777000 -0.245498 0.517245 0.819871 0.026189 
159157.937988 384397.619995 23.622999 0.060613 -0.545521 0.835902 0.052752 
159157.958984 384397.750977 23.896999 0.057532 -0.543049 0.837727 0.049217 
159157.966003 384403.081970 25.662001 -0.091667 0.222262 0.970668 0.089102 
159157.974976 384397.556030 20.632999 0.015309 -0.661084 0.750156 0.092851 
159157.976013 384401.578979 26.334999 0.044261 -0.128242 0.990755 0.097131 
159157.992981 384405.286011 23.789000 -0.265366 0.557425 0.786676 0.016209 
159158.000000 384405.994019 23.767000 -0.300799 0.651463 0.696503 0.010817 
159158.012024 384403.830994 24.926001 -0.144919 0.340904 0.928861 0.069407 
159158.013977 384399.226013 24.002001 0.064539 -0.449025 0.891185 0.044994 
159158.018982 384397.750000 23.968000 0.046008 -0.539551 0.840695 0.047142 
159158.023987 384397.495972 18.709000 0.029292 0.796465 -0.603974 0.071686 
159158.033997 384400.263977 24.924000 0.067779 -0.287743 0.955306 0.067374 
159158.044006 384403.458984 25.292000 -0.120590 0.287560 0.950141 0.079733 
159158.046997 384400.880005 25.565001 0.062693 -0.224956 0.972350 0.078534 
159158.060974 384398.630005 23.851999 0.051420 -0.521154 0.851912 0.041329 
159158.080994 384406.361023 22.412001 -0.339463 0.719532 0.605837 0.019262 
159158.088989 384402.612976 26.169001 -0.042968 0.091445 0.994883 0.094444 
159158.101013 384404.458984 24.333000 -0.200894 0.409120 0.890092 0.049434 
159158.114990 384406.280029 23.874001 -0.308726 0.657861 0.686955 0.011391 
159158.132996 384402.322998 26.530001 -0.015253 0.025421 0.999560 0.097605 
159158.135986 384399.531006 24.209999 0.060708 -0.408766 0.910618 0.050892 
159158.146973 384399.718994 24.409000 0.065128 -0.370831 0.926414 0.054696 
159158.159973 384401.189026 25.884001 0.053758 -0.187555 0.980782 0.084729 
159158.159973 384406.473022 20.723000 -0.360857 0.818683 0.446699 0.029066 
159158.166992 384397.443970 22.115999 -0.001349 -0.538096 0.842882 0.080920 
159158.168030 384400.744019 25.420000 0.058393 -0.244752 0.967826 0.075844 
159158.184021 384398.630981 23.833000 0.039944 -0.516514 0.855347 0.042575 
159158.184998 384400.299011 24.966999 0.057221 -0.291191 0.954952 0.065960 
159158.189026 384403.702026 25.079000 -0.133270 0.302887 0.943662 0.070662 
159158.195984 384404.580994 24.233000 -0.212413 0.435225 0.874906 0.045906 
159158.200989 384398.958008 23.841999 0.045314 -0.487474 0.871961 0.040316 
159158.210022 384399.586975 24.249001 0.063135 -0.398962 0.914791 0.050669 
159158.211975 384404.973999 23.854000 -0.234042 0.500206 0.833677 0.029164 
159158.219971 384405.658020 23.823999 -0.277496 0.588291 0.759546 0.010981 
159158.231995 384402.869019 25.999001 -0.065013 0.161942 0.984656 0.092074 
159158.236023 384398.429993 23.773001 0.028838 -0.525947 0.850029 0.046385 
159158.242981 384397.526978 22.113001 -0.015003 -0.544208 0.838816 0.080643 
159158.244995 384401.262024 25.865000 0.053656 -0.184815 0.981308 0.087537 
159158.255005 384401.986023 26.695000 0.017947 -0.066508 0.997624 0.098253 
159158.275024 384401.015015 25.643999 0.057231 -0.213092 0.975354 0.080506 
159158.283997 384405.645020 23.851999 -0.274093 0.578289 0.768411 0.011693 
159158.294983 384403.604980 25.301001 -0.117561 0.281354 0.952376 0.076306 
159158.304016 384404.161011 24.738001 -0.174708 0.367882 0.913313 0.060283 
159158.304993 384398.039001 23.884001 0.017757 -0.542259 0.840024 0.049745 
159158.307007 384400.575012 25.145000 0.056181 -0.255934 0.965060 0.069319 
159158.312012 384399.935974 24.497000 0.061918 -0.351749 0.934044 0.055525 
159158.317017 384403.112976 25.761999 -0.077065 0.196944 0.977381 0.087210 
159158.322998 384400.091980 24.662001 0.060898 -0.322629 0.944564 0.058222 
159158.346008 384406.304016 22.573999 -0.325577 0.707848 0.626858 0.016978 
159158.348022 384401.606995 26.204000 0.039950 -0.138112 0.989611 0.090571 
159158.354980 384406.013977 22.863001 -0.323167 0.680436 0.657701 0.014760 
159158.367004 384404.655029 24.270000 -0.210117 0.442587 0.871762 0.044874 
159158.377014 384404.236023 24.690001 -0.178385 0.369613 0.911902 0.058901 
159158.385010 384402.237976 26.698000 -0.004916 0.000983 0.999987 0.096556 
159158.385986 384402.481018 26.524000 -0.017633 0.044601 0.998849 0.096424 
159158.388977 384399.231995 23.847000 0.039244 -0.456048 0.889090 0.041750 
159158.422974 384405.335022 23.840000 -0.250129 0.535992 0.806318 0.020880 
159158.431030 384401.002014 25.587000 0.049656 -0.216791 0.974954 0.077473 
159158.440979 384398.315979 23.906000 0.009473 -0.529123 0.848492 0.048294 
159158.440979 384399.517029 24.101999 0.049471 -0.410474 0.910529 0.046796 
159158.442993 384397.893005 20.118999 0.101534 0.713678 -0.693077 0.097491 
159158.445984 384403.377991 25.544001 -0.092526 0.237019 0.967089 0.085236 
159158.458008 384404.776001 24.202000 -0.213767 0.452946 0.865531 0.042109 
159158.471008 384400.531982 25.082001 0.056244 -0.261220 0.963639 0.066402 
159158.476013 384402.672974 26.313000 -0.031374 0.078975 0.996383 0.091676 
159158.482971 384397.908997 23.257999 -0.020534 -0.543477 0.839173 0.060670 
159158.486023 384404.216003 24.733000 -0.180194 0.353293 0.917995 0.062653 
159158.487976 384402.041992 26.639000 0.018020 -0.068900 0.997461 0.094794 
159158.491028 384398.338989 23.863001 0.009486 -0.527170 0.849707 0.048785 
159158.492004 384400.088989 24.617001 0.058315 -0.322679 0.944710 0.056103 
159158.492981 384400.971008 25.466000 0.049865 -0.220136 0.974194 0.076904 
159158.499023 384397.843018 19.267000 0.100688 0.798205 -0.593911 0.087420 
159158.502991 384403.268982 25.723000 -0.081053 0.223209 0.971395 0.085026 
159158.539001 384401.788025 26.357000 0.034880 -0.127144 0.991271 0.091827 
159158.547974 384400.291992 24.754000 0.055010 -0.305753 0.950520 0.060958 
159158.552002 384397.849976 22.350000 -0.051938 -0.560091 0.826801 0.077231 
159158.554993 384405.317017 23.788000 -0.249480 0.525302 0.813521 0.022473 
159158.557007 384404.908997 24.122000 -0.225100 0.469840 0.853569 0.036895 
159158.562012 384397.830994 21.400000 -0.097222 -0.584781 0.805344 0.092148 
159158.567993 384406.346008 22.629999 -0.322020 0.707150 0.629477 0.016320 
159158.572998 384402.744019 26.326000 -0.036345 0.098020 0.994521 0.090952 
159158.572998 384403.380981 25.643000 -0.086857 0.235394 0.968011 0.084174 
159158.581970 384399.619995 24.076000 0.051965 -0.393065 0.918041 0.048034 
159158.585999 384405.406982 23.608999 -0.253882 0.540473 0.802143 0.017601 
159158.593994 384398.145996 23.836000 -0.001349 -0.533028 0.846097 0.050539 
159158.598022 384402.757019 26.260000 -0.036352 0.095838 0.994733 0.091094 
159158.603027 384406.099976 22.909000 -0.318764 0.690925 0.648855 0.014276 
159158.617004 384398.676025 23.822001 0.014806 -0.491293 0.870868 0.047969 
159158.637024 384401.939026 26.445000 0.027362 -0.097407 0.994868 0.093214 
159158.637024 384405.656982 23.370001 -0.281242 0.592674 0.754745 0.010455 
159158.645020 384404.023987 25.014000 -0.148076 0.302944 0.941434 0.068561 
159158.661011 384398.901001 23.827999 0.017424 -0.478498 0.877916 0.043121 
159158.668030 384406.736023 22.296000 -0.328679 0.736695 0.590975 0.023601 
159158.682007 384406.750977 19.847000 -0.377984 0.867680 0.322893 0.027039 
159158.693970 384399.210999 23.820000 0.017269 -0.452982 0.891352 0.042313 
159158.700012 384406.726013 20.996000 -0.356839 0.798488 0.484853 0.032115 
159158.708984 384397.987976 24.017000 -0.006755 -0.522804 0.852426 0.048922 
159158.716003 384400.802979 25.257999 0.045451 -0.241996 0.969212 0.072349 
159158.721985 384403.026001 26.033001 -0.049685 0.146745 0.987926 0.088965 
159158.729004 384404.559021 24.514999 -0.186058 0.390867 0.901446 0.053691 
159158.745972 384400.343018 24.770000 0.054828 -0.299641 0.952475 0.060974 
159158.745972 384400.674988 25.045000 0.050743 -0.251240 0.966594 0.070534 
159158.747986 384399.306030 23.870001 0.025234 -0.436949 0.899132 0.042557 
159158.747986 384402.453003 26.671000 -0.006992 0.016980 0.999831 0.092318 
159158.747986 384405.077026 23.997999 -0.225616 0.476973 0.849467 0.036905 
159158.757996 384403.874023 25.215000 -0.137805 0.284975 0.948578 0.073814 
159158.781006 384399.885010 24.291000 0.045752 -0.359479 0.932031 0.049660 
159158.807007 384401.603027 26.002001 0.042804 -0.156176 0.986801 0.085838 
159158.820984 384398.588013 23.837000 0.009394 -0.500591 0.865633 0.050438 
159158.830017 384399.960022 24.316999 0.045614 -0.353185 0.934441 0.051124 
159158.831970 384404.971985 24.104000 -0.217706 0.460937 0.860315 0.040258 
159158.835022 384397.655029 22.059999 -0.106074 -0.565243 0.818076 0.078928 
159158.840027 384399.309021 23.914000 0.025263 -0.434796 0.900174 0.043559 
159158.843994 384403.163025 25.976000 -0.053044 0.168562 0.984263 0.088500 
159158.846008 384405.994995 23.087999 -0.305197 0.673370 0.673370 0.012526 
159158.853027 384398.078003 22.674999 -0.063151 -0.529067 0.846227 0.067994 
159158.862976 384402.158020 26.599001 0.017985 -0.066649 0.997614 0.093750 
159158.882996 384406.833984 22.253000 -0.324849 0.741819 0.586667 0.023723 
159158.885986 384399.653015 24.024000 0.038142 -0.385363 0.921977 0.046511 
159158.887024 384405.870972 23.275999 -0.282012 0.613416 0.737692 0.011495 
159158.895996 384398.062012 23.819000 -0.012146 -0.506098 0.862391 0.050143 
159158.898987 384402.379028 26.740000 0.000991 -0.012883 0.999917 0.092423 
159158.908020 384401.619019 25.962999 0.040494 -0.156191 0.986896 0.084771 
159158.919006 384400.515015 24.846001 0.054090 -0.275482 0.959783 0.064250 
159158.919006 384403.802979 25.386999 -0.118525 0.253981 0.959919 0.074915 
159158.919983 384397.781982 22.107000 -0.112451 -0.562254 0.819284 0.076282 
159158.926025 384398.577026 23.857000 0.012094 -0.498561 0.866770 0.047572 
159158.935974 384405.278992 23.861000 -0.226607 0.491236 0.841033 0.031294 
159158.955017 384397.690979 23.972000 -0.031375 -0.503368 0.863502 0.047950 
159158.955017 384406.505981 22.655001 -0.311354 0.704983 0.637227 0.017419 
159158.973999 384401.119995 25.413000 0.046868 -0.207903 0.977026 0.075564 
159158.989990 384399.135986 23.465000 0.014645 -0.464654 0.885371 0.051472 
159158.994019 384400.382019 24.646999 0.052198 -0.296636 0.953563 0.058762 
159158.994995 384404.877014 24.336000 -0.198388 0.418819 0.886133 0.047710 
159159.000977 384404.341003 24.875000 -0.163463 0.339501 0.926293 0.064604 
159159.002014 384400.604980 24.933001 0.048784 -0.268938 0.961921 0.065275 
159159.008972 384402.666016 26.514000 -0.011452 0.055178 0.998411 0.092377 
159159.021973 384403.538025 25.663000 -0.093853 0.213985 0.972318 0.080302 
159159.030029 384398.942017 23.950001 0.025445 -0.459347 0.887892 0.046981 
159159.031982 384406.937012 20.792000 -0.361280 0.816462 0.450407 0.034845 
159159.052979 384403.664001 25.591000 -0.100364 0.235029 0.966793 0.078616 
159159.054993 384398.377991 23.868000 -0.001335 -0.503455 0.864020 0.048088 
159159.057007 384400.127014 24.431000 0.050231 -0.325857 0.944084 0.053729 
159159.078979 384399.682983 23.990000 0.029997 -0.379529 0.924694 0.046270 
159159.091003 384401.406982 25.712999 0.046107 -0.180880 0.982424 0.079558 
159159.091980 384402.963989 26.306999 -0.029905 0.109653 0.993520 0.089988 
159159.093018 384399.651978 23.914000 0.030082 -0.385834 0.922078 0.045791 
159159.096008 384397.906006 22.176001 -0.105744 -0.543205 0.832914 0.073542 
159159.101013 384399.008972 23.271999 0.006668 -0.486764 0.873508 0.055153 
159159.107971 384404.620972 24.582001 -0.175970 0.379122 0.908461 0.053471 
159159.109009 384401.559998 25.825001 0.045582 -0.164797 0.985274 0.082353 
159159.116028 384404.158997 25.111000 -0.142026 0.301637 0.942785 0.066604 
159159.135010 384402.369995 26.700001 0.019785 -0.048941 0.998606 0.091777 
159159.135010 384405.632019 23.580999 -0.247419 0.539965 0.804501 0.017287 
159159.140015 384402.096985 26.344000 0.036496 -0.100642 0.994253 0.090759 
159159.148010 384406.497986 22.736000 -0.307862 0.701151 0.643124 0.016933 
159159.148987 384405.906982 23.350000 -0.267030 0.592522 0.760008 0.011065 
159159.151001 384401.335022 25.559999 0.048671 -0.183998 0.981721 0.077449 
159159.151978 384401.956970 26.239000 0.032433 -0.121904 0.992012 0.089465 
159159.169006 384405.643982 23.627001 -0.246801 0.538615 0.805595 0.017878 
159159.184998 384398.299988 23.857000 -0.009376 -0.494241 0.869274 0.046956 
159159.187012 384398.281006 23.155001 -0.042690 -0.502641 0.863441 0.056395 
159159.189026 384398.255005 24.010000 -0.006697 -0.494251 0.869293 0.046816 
159159.203003 384404.942017 24.309000 -0.195079 0.423893 0.884454 0.049108 
159159.210022 384403.568970 25.724001 -0.085407 0.209186 0.974139 0.080024 
159159.210022 384406.301025 22.985001 -0.305041 0.695622 0.650431 0.013368 
159159.218994 384406.401978 22.913000 -0.304357 0.697282 0.648972 0.015672 
159159.245972 384402.065979 26.299000 0.031930 -0.102396 0.994231 0.088049 
159159.265991 384404.659973 24.657000 -0.172218 0.371479 0.912329 0.055873 
159159.268005 384400.059998 24.219999 0.037303 -0.338302 0.940298 0.050843 
159159.276001 384404.122009 25.205000 -0.135075 0.287535 0.948197 0.067036 
159159.278015 384398.935974 23.118999 0.004001 -0.486771 0.873520 0.059676 
159159.289978 384402.323975 26.540001 0.026244 -0.051439 0.998331 0.090447 
159159.291016 384400.406006 24.603001 0.047046 -0.301346 0.952354 0.057287 
159159.293030 384403.195007 26.145000 -0.047272 0.146427 0.988091 0.085590 
159159.322998 384404.401001 24.930000 -0.147162 0.325957 0.933860 0.062283 
159159.325989 384398.176025 22.465000 -0.074250 -0.497332 0.864377 0.062437 
159159.336975 384399.504028 23.670000 0.025012 -0.414665 0.909630 0.048489 
159159.351990 384399.348022 23.476000 0.017269 -0.447678 0.894028 0.048761 
159159.353027 384399.924011 24.107000 0.037611 -0.359246 0.932485 0.049709 
159159.356995 384398.708984 22.805000 -0.034089 -0.489523 0.871324 0.061327 
159159.361023 384402.744995 26.656000 -0.003085 0.052451 0.998619 0.088834 
159159.364990 384402.698975 26.725000 -0.001018 0.041758 0.999127 0.089392 
159159.366028 384401.216003 25.391001 0.059103 -0.199020 0.978212 0.070653 
159159.383972 384404.273010 25.070000 -0.138889 0.295307 0.945253 0.066634 
159159.387024 384404.877991 24.509001 -0.180539 0.397185 0.899805 0.050848 
159159.406982 384398.656006 22.731001 -0.034018 -0.483050 0.874932 0.061024 
159159.411011 384401.030029 25.150000 0.052483 -0.225797 0.972760 0.067899 
159159.414001 384401.773987 25.892000 0.045058 -0.149037 0.987804 0.081653 
159159.416992 384398.028015 22.107000 -0.098470 -0.509475 0.854833 0.063704 
159159.427979 384405.258972 24.103001 -0.211680 0.463893 0.860229 0.038073 
159159.429993 384401.765991 25.907000 0.047656 -0.154592 0.986828 0.081050 
159159.432007 384402.163025 26.330999 0.040599 -0.088878 0.995215 0.087977 
159159.437012 384405.429016 23.952000 -0.219218 0.482279 0.848145 0.033240 
159159.466980 384399.202026 23.284000 0.017329 -0.462542 0.886428 0.057951 
159159.468018 384403.362000 26.058001 -0.059791 0.155924 0.985958 0.082760 
159159.486023 384400.073975 24.171000 0.042513 -0.333665 0.941733 0.051105 
159159.494019 384404.575012 24.823999 -0.156683 0.331392 0.930392 0.060221 
159159.536011 384402.033997 26.114000 0.041584 -0.115762 0.992406 0.083316 
159159.536987 384399.744995 23.802999 0.035328 -0.378142 0.925073 0.049158 
159159.546021 384403.903992 25.559999 -0.099615 0.223188 0.969672 0.074322 
159159.547974 384404.434021 25.013000 -0.139856 0.308227 0.940976 0.062892 
159159.567993 384398.737000 22.799999 -0.020066 -0.461513 0.886907 0.063115 
159159.575989 384402.840027 26.650000 -0.007145 0.037766 0.999261 0.087682 
159159.583984 384400.203003 24.278000 0.044981 -0.325146 0.944593 0.052108 
159159.607971 384400.625000 24.674999 0.056930 -0.282120 0.957689 0.058926 
159159.609009 384398.414978 22.391001 -0.056379 -0.468912 0.881444 0.062669 
159159.619995 384399.033997 23.035000 -0.001316 -0.459279 0.888291 0.060828 
159159.629028 384399.299988 23.347000 0.022635 -0.448696 0.893398 0.057856 
159159.630981 384399.731995 23.785999 0.040710 -0.382151 0.923203 0.049147 
159159.646973 384403.939026 25.517000 -0.099615 0.223188 0.969672 0.074338 
159159.653992 384400.745972 24.746000 0.051368 -0.271875 0.960961 0.061017 
159159.658020 384401.487976 25.488001 0.046019 -0.178177 0.982922 0.070675 
159159.664001 384401.008972 25.056000 0.050202 -0.233866 0.970972 0.064320 
159159.689026 384397.697998 22.107000 -0.107931 -0.519509 0.847621 0.056658 
159159.692017 384404.926025 24.544001 -0.172558 0.380769 0.908426 0.053987 
159159.693970 384405.223022 24.271999 -0.192770 0.431157 0.881444 0.042517 
159159.697021 384402.471985 26.547001 0.026404 -0.055977 0.998083 0.086650 
159159.697998 384401.578979 25.615000 0.043315 -0.169747 0.984535 0.072254 
159159.721008 384401.083984 25.077999 0.049838 -0.222449 0.973670 0.064714 
159159.721985 384401.961975 26.000999 0.044622 -0.136153 0.989682 0.079938 
159159.732971 384403.150024 26.382999 -0.034137 0.100209 0.994381 0.085998 
159159.757019 384404.241028 25.287001 -0.110586 0.261504 0.958847 0.068805 
159159.794983 384399.440979 23.379999 0.033348 -0.428192 0.903072 0.056471 
159159.809021 384401.713013 25.683001 0.047731 -0.159490 0.986045 0.074564 
159159.812988 384404.223022 25.353001 -0.110111 0.257789 0.959907 0.069278 
159159.823975 384402.385986 26.386000 0.024529 -0.071453 0.997142 0.083829 
159159.836975 384401.606018 25.575001 0.045582 -0.164797 0.985274 0.072400 
159159.838013 384403.669983 25.924999 -0.078619 0.177800 0.980921 0.080368 
159159.843994 384398.314026 22.566000 -0.047631 -0.461343 0.885942 0.061926 
159159.859985 384402.497986 26.459999 0.011407 -0.050814 0.998643 0.083571 
159159.874023 384398.091980 22.457001 -0.064996 -0.468803 0.880908 0.058927 
159159.875000 384398.731995 22.745001 -0.017166 -0.437084 0.899257 0.062863 
159159.890015 384399.992004 23.944000 0.059147 -0.350941 0.934528 0.051015 
159159.901001 384398.013977 24.007999 -0.009223 -0.441388 0.897269 0.044966 
159159.906982 384399.539978 23.471001 0.044036 -0.415009 0.908751 0.053964 
159159.919983 384397.116028 22.103001 -0.137610 -0.566715 0.812341 0.057808 
159159.919983 384401.179993 25.076000 0.052099 -0.214454 0.975344 0.064206 
159159.922974 384403.088989 26.573000 -0.026611 0.067061 0.997394 0.086704 
159159.924011 384403.585999 25.988001 -0.072605 0.160683 0.984332 0.081888 
159159.924011 384403.624023 26.016001 -0.072861 0.168415 0.983020 0.081699 
159159.929993 384400.421021 24.320999 0.065625 -0.302391 0.950922 0.054594 
159159.945984 384400.814026 24.739000 0.056342 -0.264182 0.962826 0.059004 
159159.953003 384399.078979 23.103001 0.019805 -0.431745 0.901778 0.061973 
159159.955017 384397.689026 23.906000 -0.036280 -0.447457 0.893569 0.045566 
159159.966980 384397.763000 24.007000 -0.022607 -0.440171 0.897629 0.044527 
159159.966980 384398.810974 22.903999 -0.006549 -0.436168 0.899842 0.062591 
159159.978027 384397.341980 22.250999 -0.120678 -0.530692 0.838930 0.055682 
159159.978027 384402.950012 26.728001 -0.015344 0.031710 0.999379 0.085964 
